ply
format ascii 1.0
element vertex 2000
property float x
property float y
property float z
property uchar red
property uchar green
property uchar blue
end_header
347 622 318 171 124 109
347 622 319 172 125 109
347 623 318 170 123 107
348 619 319 174 128 115
349 619 318 174 131 117
349 619 319 175 131 116
350 617 319 172 130 116
351 616 319 166 126 111
351 617 318 169 127 112
351 617 319 170 128 114
350 619 317 173 129 115
351 618 317 170 128 112
351 619 316 170 127 112
351 619 317 172 130 115
350 618 319 174 131 118
350 619 318 175 132 118
350 619 319 175 133 120
351 618 318 172 130 115
351 618 319 171 129 115
351 619 318 173 130 116
349 623 315 169 125 109
351 621 315 168 124 109
351 623 313 170 127 111
350 622 315 169 126 111
350 623 314 168 124 105
350 623 315 170 127 112
351 622 314 171 128 112
351 622 315 169 127 111
351 623 314 169 125 109
351 623 315 169 126 109
349 621 317 172 126 112
348 620 318 171 124 110
348 620 319 172 125 113
348 621 318 172 125 112
349 620 318 172 127 112
349 621 318 173 127 113
348 622 317 171 124 108
348 623 316 170 125 109
348 623 317 172 126 111
349 622 316 171 129 112
349 622 317 172 127 111
349 623 316 170 127 111
348 622 318 173 126 111
350 620 316 168 123 107
350 620 317 170 126 111
350 621 316 170 126 112
350 621 317 171 127 111
351 620 316 167 123 108
350 620 318 172 128 113
350 622 316 170 128 111
350 623 316 170 127 111
336 639 298 174 132 117
336 639 299 175 134 120
336 637 302 179 138 124
336 637 303 180 138 124
337 637 303 180 138 124
336 638 300 178 137 122
336 638 301 179 138 124
336 639 300 178 137 123
336 639 301 179 138 124
337 638 301 179 137 123
337 639 300 176 134 120
337 639 301 176 134 121
336 638 302 180 139 124
337 638 302 178 137 123
338 637 303 179 137 123
339 637 303 178 136 121
338 639 300 173 131 116
338 639 301 175 133 118
339 639 301 177 136 122
338 638 302 176 134 120
338 638 303 178 136 122
338 639 302 175 133 119
339 638 302 176 134 120
339 638 303 177 135 121
339 639 302 177 135 121
340 639 301 178 137 123
340 638 302 180 139 124
340 638 303 180 137 123
340 639 302 180 139 124
341 638 302 181 138 124
341 638 303 180 138 123
341 639 302 179 136 123
342 638 303 177 134 120
342 639 302 176 133 119
343 638 303 175 131 115
343 639 302 174 130 116
344 638 303 174 130 115
344 639 302 175 131 117
344 639 303 173 129 114
345 638 303 173 127 111
345 639 302 175 130 115
345 639 303 173 128 112
346 638 303 173 128 111
346 639 302 176 130 114
346 639 303 175 129 113
347 638 303 176 131 114
347 639 302 176 129 111
347 639 303 176 130 112
348 638 303 179 132 115
348 639 302 178 130 111
348 639 303 178 131 113
349 638 303 179 132 115
349 639 302 180 133 114
349 639 303 179 131 113
350 638 303 179 132 115
350 639 302 181 133 115
350 639 303 180 132 115
351 638 303 174 127 110
351 639 302 177 129 113
351 639 303 176 129 112
336 629 311 173 131 117
336 631 309 178 138 123
336 630 311 175 134 120
336 631 310 177 136 122
337 630 311 175 134 120
337 631 310 176 135 122
338 630 311 172 131 118
338 631 310 174 131 117
338 631 311 172 129 115
339 630 311 175 131 117
339 631 310 175 131 117
339 631 311 175 130 117
340 630 311 176 129 114
340 631 310 176 131 116
340 631 311 177 132 117
341 630 311 177 131 116
341 631 310 176 131 114
341 631 311 178 132 116
342 630 311 181 134 118
342 631 310 177 130 114
342 631 311 179 131 115
343 630 311 180 130 115
343 631 310 181 133 118
343 631 311 180 131 116
336 626 315 178 136 123
336 627 314 176 134 121
337 626 315 176 133 119
337 627 314 173 130 118
338 626 315 175 132 118
338 627 314 173 130 117
338 627 315 173 130 116
339 626 315 176 133 118
339 627 314 175 132 118
339 627 315 174 131 116
336 624 316 177 134 120
336 624 317 178 134 120
336 625 316 179 137 122
337 624 316 177 134 120
337 624 317 175 132 118
337 625 316 177 133 119
338 624 317 174 130 116
338 625 316 176 132 118
339 624 317 174 129 116
339 625 316 177 134 119
339 626 316 178 135 120
336 628 313 174 132 120
336 629 312 174 133 120
337 628 313 172 130 118
337 629 312 173 132 119
337 629 313 172 130 118
336 628 314 174 132 119
337 628 314 171 130 117
337 630 312 174 134 121
338 628 313 172 130 118
338 629 312 173 131 118
338 629 313 172 131 117
339 628 313 174 132 117
339 629 312 175 133 117
339 629 313 175 133 118
338 628 314 172 131 118
339 628 314 174 131 118
338 630 312 173 131 118
339 630 312 175 131 117
340 626 315 176 132 117
340 627 314 176 132 116
341 626 315 175 130 115
341 627 314 176 131 116
342 626 315 175 130 114
342 627 314 174 130 114
343 626 315 172 126 112
343 627 314 172 128 113
343 627 315 172 127 112
340 624 317 175 130 117
340 625 316 178 134 120
341 624 317 176 131 116
341 625 316 177 132 117
342 624 317 176 130 114
342 625 316 176 131 115
343 624 317 175 128 112
343 625 316 173 126 111
340 628 313 177 133 117
340 629 312 178 134 117
340 629 313 178 134 117
341 628 313 177 134 114
341 629 312 178 133 115
340 628 314 177 132 118
341 628 314 176 131 114
340 630 312 177 132 115
341 630 312 177 131 114
342 628 313 177 132 114
342 629 312 179 133 115
342 629 313 178 132 113
343 628 313 177 130 114
343 629 312 180 132 116
343 629 313 180 133 115
342 628 314 174 130 113
336 633 307 180 139 125
337 633 307 180 139 124
336 635 305 179 138 124
337 635 305 180 138 124
336 634 306 179 138 124
336 634 307 180 139 125
336 635 306 180 139 125
337 634 306 180 139 124
337 634 307 180 138 124
337 635 306 180 138 123
338 635 305 180 139 123
339 635 305 180 139 124
338 634 306 180 138 123
338 634 307 180 138 123
338 635 306 180 138 123
339 634 307 180 137 122
339 635 306 180 138 122
336 632 308 179 137 122
336 632 309 179 138 123
336 633 308 180 138 124
337 632 308 180 139 125
337 632 309 179 137 123
337 633 308 180 138 124
338 632 308 178 135 121
338 632 309 176 134 120
338 633 308 178 136 121
339 632 309 177 133 119
339 633 308 179 135 121
339 632 310 176 133 118
339 634 308 179 135 120
336 636 304 180 138 125
336 636 305 180 138 124
336 637 304 180 138 125
337 636 304 181 139 126
337 636 305 180 139 125
337 637 304 181 139 126
338 636 304 181 140 126
338 636 305 181 140 125
338 637 304 180 138 125
339 636 305 180 139 124
339 637 304 180 138 124
340 634 307 179 134 119
340 635 306 179 135 120
340 635 307 178 132 118
341 634 307 179 134 119
341 635 306 179 133 119
341 635 307 179 132 118
342 634 307 178 130 115
342 635 306 179 132 117
342 635 307 178 130 116
343 634 307 179 131 115
343 635 306 180 132 117
343 635 307 180 132 117
340 632 309 178 132 118
340 633 308 179 134 120
341 632 309 178 131 117
341 633 308 180 136 121
341 633 309 179 134 119
340 632 310 176 132 117
341 632 310 176 130 113
340 634 308 180 135 120
341 634 308 180 135 120
342 632 309 180 132 117
342 633 308 179 133 117
342 633 309 180 133 117
343 632 309 182 134 118
343 633 308 180 131 116
343 633 309 179 130 114
342 632 310 178 132 115
343 632 310 182 135 120
342 634 308 178 130 115
343 634 308 179 130 115
340 636 305 181 138 123
340 637 304 180 138 124
341 636 305 179 134 120
341 637 304 180 137 123
341 637 305 180 136 122
342 636 305 179 134 120
342 637 304 178 134 119
342 637 305 179 135 121
343 636 305 178 131 117
343 637 304 175 130 115
343 637 305 176 130 116
342 636 306 179 132 118
343 636 306 179 131 116
343 638 304 175 130 115
344 630 311 179 129 115
344 631 310 181 133 118
345 630 311 178 129 115
345 631 310 178 130 115
347 629 311 171 125 111
346 630 310 171 126 110
346 630 311 174 127 112
346 631 310 173 127 112
347 630 310 169 125 109
347 630 311 169 125 110
347 631 310 169 124 108
350 627 311 165 120 103
351 626 311 168 124 106
351 627 310 165 123 105
351 627 311 166 122 104
348 629 311 167 121 107
349 628 311 167 121 106
349 629 311 165 121 106
348 631 309 170 125 108
349 631 309 169 124 108
348 630 310 167 123 107
348 630 311 167 123 108
348 631 310 169 124 107
349 630 310 165 122 105
349 630 311 165 122 105
349 631 310 167 123 107
351 629 309 166 122 106
350 628 311 165 120 103
350 629 310 164 120 104
350 629 311 165 121 105
351 628 310 165 122 106
351 628 311 164 120 103
351 629 310 164 120 105
350 630 309 167 123 107
350 631 309 170 126 111
351 630 308 170 125 107
351 630 309 169 124 108
351 631 308 171 126 108
351 631 309 171 127 110
350 630 310 164 120 104
344 626 315 170 123 108
344 627 314 172 126 112
345 626 315 170 125 109
345 627 314 173 127 110
346 625 315 170 125 111
347 625 315 169 124 109
346 627 313 173 126 110
347 627 313 172 126 109
346 626 315 170 126 109
346 627 314 172 127 110
347 626 314 172 128 111
347 626 315 170 126 109
347 627 314 171 126 109
344 624 316 171 125 110
344 624 317 175 128 113
344 625 316 171 124 110
345 624 316 171 124 109
345 624 317 174 127 111
345 625 316 170 124 110
346 624 316 171 125 110
346 624 317 172 127 111
346 625 316 171 125 110
347 624 316 170 124 109
347 625 316 170 124 110
344 628 313 177 130 115
344 629 312 179 130 115
345 628 313 176 129 113
345 629 312 178 129 115
344 630 312 178 129 115
345 630 312 178 128 114
346 628 313 176 128 113
346 629 312 176 127 114
347 628 312 172 125 109
347 628 313 172 126 111
347 629 312 173 126 111
348 624 315 168 124 107
348 625 314 172 127 110
348 625 315 170 125 107
349 624 314 170 124 107
349 624 315 169 125 108
349 625 314 171 125 107
348 627 312 170 122 106
348 627 313 171 125 109
349 626 313 172 127 109
349 627 312 168 122 105
349 627 313 171 124 107
348 626 314 171 126 109
348 627 314 170 124 108
349 626 314 171 126 108
350 625 312 170 124 109
350 625 313 171 126 110
351 624 312 170 125 108
351 624 313 171 127 111
351 625 312 170 125 109
351 625 313 170 125 110
350 624 314 170 127 109
350 625 314 171 125 107
350 626 312 169 123 107
350 626 313 171 125 110
350 627 312 168 123 106
351 626 312 169 124 108
348 624 316 168 122 106
348 628 312 170 123 109
348 629 312 169 123 109
349 628 312 168 123 106
344 634 307 183 134 119
344 635 306 179 130 114
344 635 307 181 133 117
345 634 307 183 134 118
345 635 306 177 129 110
345 635 307 181 134 116
346 634 307 182 134 117
346 635 306 177 129 111
346 635 307 181 134 116
347 634 307 179 131 114
347 635 306 176 128 111
347 635 307 178 130 112
344 632 309 180 131 116
344 633 308 180 131 116
344 633 309 179 131 116
345 632 309 177 129 115
345 633 308 181 130 117
345 633 309 179 130 116
344 632 310 181 132 117
345 632 310 177 130 114
344 634 308 181 132 117
345 634 308 182 132 119
346 632 309 174 126 111
346 633 308 180 131 117
346 633 309 177 128 114
347 632 309 173 127 111
347 633 308 179 131 115
347 633 309 176 129 113
346 632 310 174 127 112
346 634 308 182 133 117
347 634 308 179 132 115
344 636 305 176 128 112
344 637 304 178 133 119
344 637 305 178 133 119
345 636 305 177 130 115
345 637 304 173 127 111
345 637 305 176 130 116
344 636 306 176 128 111
345 636 306 176 129 112
344 638 304 177 133 118
345 638 304 173 127 111
346 636 305 176 129 115
346 637 304 171 125 106
346 637 305 173 126 110
347 636 305 175 129 112
347 637 305 173 127 110
346 636 306 176 128 113
347 636 306 175 128 111
346 638 304 172 126 109
347 638 304 175 129 112
348 634 307 177 129 112
348 635 306 177 131 114
348 635 307 177 130 113
349 634 307 176 129 111
349 635 306 175 130 113
349 635 307 177 131 115
350 633 307 173 126 108
351 632 307 172 126 108
351 633 307 170 124 108
350 634 307 173 127 110
350 635 306 170 124 109
350 635 307 174 128 112
351 634 306 167 123 107
351 634 307 168 123 107
351 635 306 167 122 106
348 632 309 172 126 109
348 633 308 176 129 112
348 633 309 174 127 110
349 632 309 171 126 109
349 633 308 175 128 110
348 634 308 178 130 114
350 632 308 173 128 109
350 632 309 172 127 111
350 633 308 173 127 109
351 632 308 172 126 108
348 636 305 173 126 110
348 637 305 174 127 111
349 636 305 172 125 110
349 637 304 179 131 116
349 637 305 175 128 113
348 636 306 174 128 111
349 636 306 173 126 110
348 638 304 178 131 115
349 638 304 180 132 117
350 636 305 173 127 112
350 637 304 176 129 114
350 637 305 175 127 112
351 636 305 171 125 110
351 637 304 172 125 109
351 637 305 172 125 110
350 636 306 171 125 110
350 638 304 180 133 118
352 593 296 96 88 84
352 593 297 96 89 84
352 593 298 97 88 82
352 593 299 98 88 81
352 594 296 96 88 84
352 594 297 98 90 85
353 594 296 98 90 85
353 594 297 98 89 83
353 595 296 98 89 82
353 595 297 99 89 82
352 594 298 98 89 82
352 594 299 101 90 81
353 594 298 99 89 81
353 594 299 101 89 80
353 595 298 100 89 81
353 595 299 101 89 79
354 595 296 100 90 83
354 595 297 101 89 81
354 595 298 102 90 81
354 595 299 103 90 80
352 593 300 100 89 81
352 593 301 101 89 80
352 593 302 103 90 80
352 593 303 104 90 80
352 594 300 103 91 82
352 594 301 102 89 78
353 594 300 103 91 81
353 594 301 103 90 80
353 595 300 103 90 80
353 595 301 103 90 79
352 594 302 104 90 79
352 594 303 105 92 81
353 594 302 104 90 79
353 594 303 104 91 80
353 595 302 103 89 78
353 595 303 102 89 78
354 595 300 103 90 80
354 595 301 102 89 78
354 595 302 102 89 78
354 595 303 101 87 76
354 596 296 100 89 79
354 596 297 102 90 81
355 597 296 104 91 81
355 597 297 105 91 81
354 596 298 103 89 79
354 596 299 104 91 80
355 597 298 105 91 80
355 597 299 104 90 79
355 598 296 106 93 82
355 598 297 105 92 81
355 598 298 105 92 81
355 598 299 105 92 82
354 596 300 102 89 77
354 596 301 101 88 77
354 597 301 101 88 77
355 597 300 103 90 78
355 597 301 101 87 76
354 596 302 100 87 75
354 596 303 99 86 76
354 597 302 100 87 76
354 597 303 98 86 76
355 597 302 99 86 75
355 597 303 98 85 75
355 598 300 104 91 80
355 598 301 100 88 77
355 598 302 99 87 77
355 598 303 97 85 76
355 599 303 96 84 75
356 598 296 106 92 81
356 598 297 106 93 82
356 599 296 106 92 81
356 599 297 105 92 81
356 598 298 105 92 81
356 598 299 104 91 80
356 599 298 104 91 80
356 599 299 102 90 79
356 598 300 102 89 79
356 598 301 101 88 79
356 599 300 100 87 78
356 599 301 99 87 77
356 599 302 97 85 76
356 599 303 96 84 75
356 600 296 104 91 80
356 600 297 104 91 80
357 600 296 103 90 80
357 600 297 103 90 79
357 601 296 102 89 79
357 601 297 101 88 78
356 600 298 103 90 79
356 600 299 101 88 77
357 600 298 101 88 78
357 600 299 100 88 77
357 601 298 100 88 78
357 601 299 100 87 77
357 602 296 101 89 79
357 602 297 101 89 79
357 602 298 100 88 78
357 602 299 100 88 78
358 602 296 100 88 78
358 602 297 100 88 78
358 603 296 101 88 78
358 603 297 100 87 76
358 602 298 100 87 76
358 602 299 100 86 75
358 603 298 100 87 75
358 603 299 100 86 75
356 600 300 100 87 77
356 600 301 98 85 75
357 600 300 99 86 76
357 600 301 98 86 76
357 601 300 99 86 77
357 601 301 98 86 76
356 600 302 97 85 75
356 600 303 95 84 74
356 601 302 96 84 73
356 601 303 96 84 74
357 601 302 97 85 74
357 601 303 97 85 74
357 602 300 100 87 76
357 602 301 99 86 75
357 602 302 98 85 74
357 602 303 98 84 73
357 603 302 98 84 72
357 603 303 96 82 70
358 602 301 99 86 74
358 603 300 100 86 74
358 603 301 99 85 73
358 603 302 98 83 70
358 603 303 96 82 69
358 604 296 101 88 77
358 604 297 101 87 76
359 604 296 101 88 77
359 604 297 101 88 76
359 605 296 101 88 77
359 605 297 102 88 77
358 604 298 101 87 75
358 604 299 101 87 75
359 604 298 103 89 76
359 604 299 102 88 76
359 605 298 103 88 76
359 605 299 103 88 75
359 606 298 103 88 74
359 606 299 103 88 74
358 604 300 102 87 75
358 604 301 101 87 74
358 605 301 102 87 73
359 605 300 103 88 75
359 605 301 103 87 73
358 604 302 99 84 71
358 604 303 98 83 70
358 605 302 102 87 72
358 605 303 102 86 72
359 605 302 102 86 71
359 606 300 104 88 73
359 606 301 105 88 73
359 607 300 105 88 72
359 607 301 106 89 72
358 606 303 104 87 71
359 606 302 104 87 71
359 606 303 106 89 72
359 607 302 106 89 71
359 607 303 108 90 73
360 606 296 102 87 75
360 606 297 102 87 75
360 607 296 102 87 74
360 607 297 103 88 73
361 607 296 103 88 74
360 606 298 102 87 73
360 606 299 104 88 73
360 607 298 103 87 72
360 607 299 104 87 71
360 607 300 105 87 71
360 607 301 106 88 70
352 593 304 104 90 79
352 593 305 104 91 80
352 593 306 104 90 79
352 593 307 104 90 79
352 594 304 104 90 79
352 594 305 103 90 79
353 594 304 103 90 79
353 594 305 102 89 78
353 595 304 101 88 77
353 595 305 100 87 77
352 594 306 103 90 79
352 594 307 102 89 79
353 594 306 101 88 78
353 594 307 100 88 77
353 595 306 99 87 77
353 595 307 97 85 76
352 593 308 103 91 80
352 594 308 100 88 78
352 594 309 99 87 77
352 595 309 96 84 75
353 595 308 96 84 75
353 595 309 94 83 74
352 594 310 97 85 76
352 594 311 95 83 75
352 595 310 93 82 74
352 595 311 92 82 74
353 595 310 91 80 70
353 596 306 97 85 76
353 596 307 95 84 76
354 596 304 98 85 75
354 596 305 97 85 75
354 597 304 97 85 75
354 597 305 95 84 75
355 597 304 98 86 77
354 596 306 95 84 76
354 596 307 94 83 75
354 597 306 94 83 75
354 597 307 93 83 75
354 598 305 95 84 75
355 598 304 97 85 76
355 598 305 95 84 75
355 599 304 94 83 73
355 599 305 95 84 74
354 598 306 93 82 73
354 598 307 93 82 73
355 598 306 94 83 74
355 598 307 93 81 72
355 599 306 95 83 74
355 599 307 94 83 73
353 596 308 92 82 73
353 596 309 92 81 73
353 597 309 92 82 74
353 596 310 91 81 73
353 596 311 90 80 73
353 597 310 91 81 74
353 597 311 90 80 72
353 598 311 91 81 73
354 597 308 92 82 74
354 597 309 92 81 74
354 598 308 92 81 72
354 598 309 92 81 73
354 599 309 95 83 73
355 598 308 92 81 72
355 599 308 95 83 73
355 599 309 95 83 74
354 598 310 93 81 73
354 598 311 92 81 73
354 599 310 94 82 72
354 599 311 94 82 72
356 599 304 95 83 74
352 594 312 93 83 75
352 594 313 92 81 74
352 595 312 91 81 74
352 595 313 92 82 75
352 595 314 92 82 75
352 595 315 93 83 76
352 595 316 94 84 76
352 596 312 91 81 74
352 596 313 91 82 75
353 596 312 90 80 73
353 596 313 91 81 73
353 597 312 92 82 74
353 597 313 93 83 74
352 596 314 92 82 74
352 596 315 94 83 76
352 597 315 95 84 75
353 597 314 94 82 74
353 597 315 95 84 75
353 598 312 94 83 75
353 598 313 95 83 74
353 598 314 95 84 74
353 598 315 97 85 75
353 599 314 97 85 74
353 599 315 98 86 75
354 598 312 93 82 74
354 598 313 95 83 72
354 599 312 96 83 73
354 599 313 96 84 72
354 599 314 98 84 73
354 599 315 99 86 75
352 596 316 95 84 75
352 596 317 95 84 74
352 597 316 97 85 76
352 597 317 99 87 76
353 597 316 97 85 76
352 596 318 97 85 75
352 596 319 98 85 74
352 597 318 100 87 77
352 597 319 101 88 77
352 598 317 101 88 78
353 598 316 100 87 76
353 598 317 102 88 78
353 599 316 101 87 76
353 599 317 102 87 75
352 598 318 101 87 76
352 598 319 103 89 76
352 599 319 106 90 76
353 598 318 103 88 76
353 599 318 104 89 75
353 599 319 105 89 75
355 600 305 96 84 74
355 600 306 97 85 75
355 600 307 97 84 74
355 600 308 96 84 72
355 600 309 97 84 73
355 601 308 99 85 73
355 601 309 100 86 74
354 600 311 97 84 73
355 600 310 97 84 72
355 600 311 99 85 73
355 601 310 101 87 73
355 601 311 102 87 74
355 602 309 103 87 73
355 602 310 103 88 73
355 602 311 103 87 72
355 603 311 105 88 72
356 600 304 95 83 73
356 600 305 95 83 73
356 601 304 96 84 73
356 601 305 96 84 73
357 601 304 97 84 74
356 600 306 97 85 75
356 601 306 97 84 72
356 601 307 98 84 73
356 602 305 96 83 72
357 602 304 97 84 73
357 602 305 96 83 71
357 603 304 97 84 72
357 603 305 96 82 69
356 602 306 98 84 72
356 602 307 98 84 72
356 603 307 99 85 71
357 603 306 97 83 70
357 603 307 98 83 70
356 601 308 99 86 74
356 602 308 100 85 72
356 602 309 102 86 72
356 603 308 100 85 71
356 603 309 103 86 71
356 602 310 104 88 72
356 603 310 104 87 71
356 603 311 106 88 71
357 604 304 97 83 70
357 604 305 98 83 70
357 605 305 101 85 71
357 604 306 98 83 70
357 604 307 98 83 69
357 605 306 102 86 71
357 605 307 102 86 71
357 606 307 105 87 71
358 604 304 98 83 70
358 605 304 101 85 70
358 605 305 101 85 70
358 605 306 102 85 69
358 606 304 105 88 72
358 606 305 105 88 72
358 607 304 107 89 72
358 607 305 109 91 73
359 607 304 109 91 73
359 607 305 109 90 72
358 606 306 105 88 71
358 606 307 105 86 69
358 607 306 109 92 75
358 607 307 108 89 70
356 604 308 101 85 70
356 604 309 103 87 71
356 605 309 105 88 72
357 604 308 99 84 69
357 605 308 102 85 69
357 605 309 104 87 70
356 604 310 106 89 71
356 604 311 109 90 72
356 605 310 107 89 72
356 605 311 109 90 72
357 605 310 107 89 72
357 606 308 104 86 68
357 606 309 104 86 67
357 607 308 106 87 68
357 607 309 107 87 67
356 606 311 112 93 74
357 606 310 108 89 71
357 606 311 111 92 74
357 607 310 110 90 69
357 607 311 112 91 71
358 607 308 108 89 69
354 600 312 99 85 74
354 600 313 100 86 73
354 601 312 102 87 74
354 601 313 103 88 75
355 601 312 102 87 74
354 600 314 101 87 74
354 600 315 102 87 74
354 601 314 103 88 74
354 601 315 104 89 75
355 602 312 105 88 73
355 602 313 105 89 74
355 603 312 107 90 73
355 603 313 108 90 73
354 602 314 105 88 74
354 602 315 106 89 73
354 603 315 107 89 72
355 602 314 105 87 71
355 603 314 106 89 71
355 603 315 108 90 73
353 600 316 103 88 75
353 600 317 105 90 76
353 601 317 109 93 78
353 600 318 107 91 76
353 600 319 109 92 77
353 601 318 111 94 78
353 601 319 112 94 78
353 602 318 113 94 76
353 602 319 114 95 77
353 603 319 115 95 76
354 600 316 104 89 75
354 601 316 106 90 75
354 601 317 108 92 77
354 602 316 108 90 73
354 602 317 110 92 75
354 603 316 109 90 71
354 603 317 110 91 71
355 603 316 110 91 73
354 602 318 112 93 75
354 603 318 113 93 74
354 603 319 114 94 74
355 604 312 109 90 72
355 604 313 111 92 74
355 605 313 114 94 74
355 604 314 111 92 73
355 604 315 111 92 73
355 605 314 116 95 74
355 605 315 117 96 75
355 606 314 120 97 75
355 606 315 122 98 75
355 607 315 123 98 74
353 604 319 117 95 74
354 604 316 112 92 71
354 604 317 113 93 73
354 605 317 119 96 73
355 604 316 112 92 73
355 605 316 119 97 75
355 605 317 121 98 75
354 604 318 115 94 74
354 604 319 116 95 75
354 605 318 121 98 75
354 605 319 123 99 78
355 606 316 125 102 79
355 606 317 126 102 79
355 607 316 127 102 78
355 607 317 131 104 82
354 606 318 129 103 81
354 606 319 131 104 83
354 607 318 134 106 84
354 607 319 136 107 86
355 607 318 132 106 83
356 604 312 109 90 72
356 605 312 112 92 73
356 605 313 116 95 75
356 605 314 118 96 75
356 606 312 115 94 74
356 606 313 119 96 75
356 607 312 116 94 71
356 607 313 119 95 72
357 607 312 115 92 70
356 606 314 121 98 75
356 607 314 122 98 74
356 607 315 122 98 73
359 608 301 106 88 69
359 608 302 108 89 70
359 608 303 109 90 70
359 609 303 110 91 70
360 608 297 105 89 75
361 608 296 103 87 72
361 608 297 105 88 73
361 609 296 104 88 71
361 609 297 104 87 70
360 608 298 105 88 72
360 608 299 105 88 72
360 609 299 108 91 74
361 608 298 105 89 73
361 609 298 107 89 72
361 609 299 109 91 74
361 610 296 105 87 70
361 610 297 106 87 69
361 611 297 109 90 71
361 610 298 108 89 69
361 610 299 110 91 71
361 611 298 111 91 71
361 611 299 112 92 72
362 610 296 106 88 70
362 611 296 108 90 72
362 611 297 109 90 72
360 608 300 107 89 71
360 608 301 107 89 70
360 609 300 110 91 72
360 609 301 111 91 73
361 609 300 111 92 73
360 608 302 109 90 71
360 609 302 111 91 71
360 609 303 112 92 72
360 610 301 114 95 75
360 611 301 116 95 74
361 610 300 112 92 73
361 610 301 114 94 73
361 611 300 113 93 72
361 611 301 115 94 74
360 610 302 114 94 73
360 610 303 114 93 72
360 611 302 116 95 74
360 611 303 116 95 72
361 612 298 113 93 72
361 612 299 115 94 73
361 613 299 117 94 71
361 614 299 118 95 71
362 612 296 112 93 74
362 612 297 113 93 74
362 613 296 115 95 74
362 613 297 115 94 72
362 612 298 113 92 70
362 613 298 115 93 70
362 613 299 116 94 70
362 614 296 116 95 73
362 614 297 117 95 73
362 615 296 117 95 74
362 615 297 119 96 74
363 615 296 117 95 72
362 614 298 118 96 73
362 614 299 118 95 70
362 615 298 121 96 74
362 615 299 121 98 73
361 612 300 115 93 72
361 612 301 115 93 71
361 613 300 118 96 73
361 613 301 118 95 73
360 612 302 117 95 73
360 612 303 118 96 73
360 613 302 120 97 72
360 613 303 121 98 73
361 612 302 118 96 72
361 613 302 119 96 72
361 614 300 120 96 73
361 614 301 119 96 73
361 615 300 122 98 74
361 615 301 122 98 74
360 614 303 122 98 74
360 615 303 125 99 77
361 614 302 121 97 72
361 615 302 123 98 74
362 616 297 122 96 74
362 617 297 125 97 76
363 616 296 120 96 73
363 617 296 122 97 74
363 617 297 124 97 75
362 616 298 123 96 74
362 616 299 125 98 76
362 617 298 125 96 75
362 617 299 125 96 75
362 618 297 127 99 78
363 618 296 124 97 74
363 618 297 126 99 76
363 619 296 125 97 74
363 619 297 128 99 76
362 618 298 128 98 78
362 618 299 127 97 76
362 619 298 130 100 78
362 619 299 130 100 78
363 619 298 129 99 76
361 616 300 124 99 77
361 616 301 124 98 76
361 617 300 125 97 76
361 617 301 126 97 76
360 616 303 128 100 80
360 617 303 130 101 82
361 616 302 125 99 76
361 616 303 126 100 79
361 617 302 127 99 77
361 617 303 130 101 81
361 618 301 128 98 78
361 619 301 130 99 80
361 618 302 129 100 79
361 618 303 132 102 81
361 619 302 132 101 81
361 619 303 135 105 84
362 616 300 125 99 76
362 617 300 125 96 75
362 618 300 128 98 77
362 619 300 130 100 78
362 619 301 130 99 80
363 620 296 127 100 77
363 620 297 129 101 78
363 621 296 128 100 77
363 621 297 130 101 78
362 620 298 131 101 78
362 620 299 133 102 80
362 621 298 134 103 82
362 621 299 135 103 82
363 620 298 130 101 78
363 621 298 133 103 80
363 622 296 128 99 77
363 622 297 131 101 79
363 623 296 129 99 78
363 623 297 132 101 79
362 622 298 136 104 85
362 622 299 137 105 85
362 623 298 137 104 84
362 623 299 138 105 86
363 622 298 134 104 82
363 623 298 135 103 81
361 620 301 133 102 84
361 621 301 135 104 85
361 620 302 135 105 86
361 620 303 138 107 88
361 621 302 137 106 88
361 621 303 141 108 91
361 622 301 138 107 88
361 623 301 142 109 91
360 623 303 150 116 99
361 622 302 140 108 88
361 622 303 144 112 93
361 623 302 144 112 93
361 623 303 146 113 95
362 620 300 132 102 78
362 620 301 132 101 79
362 621 300 136 105 84
362 621 301 135 105 84
362 622 300 138 106 86
362 622 301 138 106 87
362 623 300 141 108 89
362 623 301 141 108 89
359 608 304 110 91 72
359 608 305 110 91 71
359 609 304 111 90 69
359 609 305 112 92 71
358 608 306 110 91 73
358 608 307 111 91 72
358 609 306 111 91 70
358 609 307 113 93 71
359 608 306 110 90 71
359 609 306 112 91 70
359 609 307 114 93 71
359 610 304 115 94 72
359 610 305 113 92 70
359 611 305 116 93 70
358 610 307 117 96 74
359 610 306 114 93 70
359 610 307 117 95 72
359 611 306 116 93 69
359 611 307 118 95 70
357 608 309 110 90 68
357 608 310 113 92 69
357 608 311 116 94 72
357 609 310 118 96 73
357 609 311 121 98 75
357 610 310 122 98 75
357 610 311 125 100 76
357 611 311 127 101 78
358 608 308 111 90 69
358 608 309 112 91 70
358 609 308 114 92 70
358 609 309 114 92 69
358 609 310 119 97 75
358 610 308 117 95 73
358 610 309 118 96 72
358 611 308 120 97 73
358 611 309 122 98 74
358 610 310 121 98 74
358 611 310 125 99 76
359 612 305 120 96 72
359 613 305 124 98 74
359 612 306 122 97 73
359 612 307 124 98 75
359 613 306 125 98 75
359 613 307 128 99 78
359 614 305 126 99 76
359 614 306 128 101 78
359 614 307 131 101 79
359 615 306 133 103 81
359 615 307 135 104 83
357 612 311 132 104 81
357 613 311 137 106 85
357 614 311 141 109 89
357 615 311 144 111 93
358 612 308 125 98 75
358 612 309 128 100 78
358 613 308 132 101 81
358 613 309 133 102 81
359 612 308 124 97 75
359 613 308 130 100 80
358 612 310 131 102 80
358 612 311 131 103 81
358 613 310 136 106 84
358 613 311 136 106 83
358 614 308 135 104 83
358 614 309 137 105 83
358 615 308 137 104 83
358 615 309 139 106 85
359 614 308 133 102 82
359 615 308 136 103 82
358 614 310 139 107 85
358 614 311 139 108 87
358 615 310 141 108 87
355 608 316 127 101 77
355 608 317 133 105 84
355 609 316 129 100 79
355 609 317 133 103 83
354 608 318 137 107 86
354 608 319 139 108 88
354 609 319 142 110 90
355 608 318 135 106 85
355 609 318 138 108 88
355 610 316 132 101 80
355 610 317 134 103 83
355 611 316 138 106 86
355 611 317 139 106 88
354 610 319 145 112 94
354 611 318 142 109 91
354 611 319 146 113 96
355 610 318 139 108 89
355 611 318 140 108 89
355 614 315 152 117 100
355 615 315 154 119 104
353 612 319 156 120 104
353 613 319 160 124 108
353 615 317 161 124 109
352 615 319 163 124 110
353 614 318 160 123 106
353 614 319 162 125 109
353 615 318 161 123 108
353 615 319 162 123 109
354 613 317 154 118 103
355 612 316 144 111 93
355 612 317 146 111 95
355 613 316 151 115 99
355 613 317 152 116 101
354 612 318 148 113 97
354 612 319 151 115 99
354 613 318 155 119 104
354 613 319 158 122 107
355 612 318 144 110 93
354 614 317 157 121 106
354 615 316 159 122 108
354 615 317 159 122 108
355 614 316 154 119 103
355 614 317 155 119 103
355 615 316 157 121 107
354 614 318 158 121 105
356 608 312 118 94 69
356 608 313 122 96 70
357 608 312 120 96 73
357 608 313 124 97 73
357 609 312 125 100 76
357 609 313 129 101 78
356 608 314 123 97 72
356 608 315 124 98 74
356 609 314 128 100 78
356 609 315 127 99 77
357 610 312 129 102 77
357 610 313 132 102 80
357 611 312 131 102 79
357 611 313 134 103 83
356 610 314 133 104 84
356 610 315 133 103 82
356 611 314 137 107 88
356 611 315 138 106 88
356 608 316 126 99 75
356 609 316 129 100 79
356 610 316 133 102 81
356 611 316 138 106 86
356 613 313 142 109 90
357 612 312 135 105 84
357 612 313 138 106 88
357 613 312 137 106 87
357 613 313 140 108 90
356 612 314 141 109 91
356 612 315 143 111 94
356 613 314 143 111 92
356 613 315 147 114 97
356 614 313 143 110 92
356 615 313 147 114 97
357 614 312 141 108 89
357 614 313 142 109 92
357 615 312 145 112 95
357 615 313 144 111 94
356 614 314 146 113 94
356 614 315 150 116 99
356 615 314 151 117 101
356 612 316 144 111 93
353 623 311 169 126 110
355 620 311 165 127 115
355 621 311 166 126 112
355 623 309 168 128 113
354 622 311 168 126 113
354 623 310 169 127 113
354 623 311 170 127 113
355 622 310 168 128 113
355 622 311 168 127 113
355 623 310 168 127 112
359 616 306 138 106 85
359 616 307 140 107 86
359 617 306 144 110 88
359 617 307 145 110 89
359 618 306 150 114 92
359 618 307 151 115 94
359 619 306 151 116 96
359 619 307 154 118 99
357 616 310 147 113 95
357 616 311 147 113 95
357 617 310 148 114 96
357 617 311 150 116 98
357 619 309 159 124 108
356 619 311 158 124 107
357 618 310 152 117 99
357 618 311 153 119 101
357 619 310 157 121 105
357 619 311 155 121 103
358 616 308 141 107 87
358 616 309 143 109 89
358 617 308 147 112 93
358 617 309 147 113 93
359 616 308 141 107 86
359 617 308 146 111 90
358 616 310 143 110 90
358 617 310 148 114 96
358 618 308 152 116 98
358 618 309 153 117 100
358 619 308 157 121 105
358 619 309 157 122 106
359 618 308 152 115 96
359 619 308 156 120 103
358 618 310 151 116 99
357 623 307 165 126 110
359 621 305 154 118 101
358 621 307 159 123 106
359 620 306 151 116 96
359 620 307 155 118 100
359 621 306 154 118 100
359 621 307 158 121 103
359 622 305 158 120 103
359 623 305 159 121 104
358 622 306 160 122 105
358 622 307 161 124 107
358 623 306 162 124 106
358 623 307 164 125 109
359 622 306 159 122 104
359 623 306 161 124 106
356 621 309 165 127 111
357 620 309 162 124 109
357 621 309 163 125 109
356 620 310 161 124 108
356 620 311 162 126 111
356 621 310 165 126 112
357 620 310 161 124 108
356 622 309 167 127 112
356 623 308 166 126 111
356 623 309 168 128 112
357 622 308 165 126 110
357 622 309 166 127 111
357 623 308 166 126 110
356 622 310 167 127 113
358 620 308 158 120 103
358 620 309 159 122 105
358 621 308 161 123 107
358 622 308 163 124 109
353 618 315 166 128 112
353 619 314 165 125 109
353 619 315 165 125 109
355 617 313 160 124 108
354 616 315 159 123 108
354 617 315 162 125 109
355 616 314 156 121 104
355 616 315 157 121 107
355 617 314 160 124 107
355 617 315 160 123 109
354 619 313 164 124 110
355 618 313 161 124 109
355 619 312 160 123 108
355 619 313 162 124 110
354 618 314 163 126 110
354 618 315 163 126 110
354 619 314 165 126 111
355 618 314 163 126 110
352 617 317 166 125 109
353 616 316 163 124 110
353 616 317 163 124 110
353 617 316 163 123 108
353 617 317 165 124 110
352 616 318 166 126 111
352 616 319 165 125 110
352 617 318 168 127 111
353 616 318 165 125 112
352 618 316 168 126 112
352 618 317 168 127 111
352 619 316 169 127 114
353 618 316 165 125 110
353 619 316 167 127 113
354 616 316 160 123 108
354 616 317 162 124 110
354 617 316 162 124 108
355 616 316 158 121 107
353 620 313 165 123 108
353 621 313 169 126 113
352 620 314 166 123 109
352 620 315 165 122 108
352 621 314 169 125 110
352 621 315 167 123 109
353 620 314 165 124 108
353 621 314 168 125 110
352 622 313 171 128 113
352 623 312 169 125 108
352 623 313 171 127 111
353 622 312 171 128 114
353 622 313 171 128 115
353 623 312 170 127 112
352 622 314 171 128 112
354 620 312 166 126 113
354 620 313 165 124 110
354 621 312 168 127 114
354 621 313 169 128 115
355 620 312 164 125 112
355 620 313 164 125 111
355 621 312 168 128 115
354 620 314 164 124 108
354 622 312 169 127 113
352 620 316 168 124 111
356 616 313 153 119 103
356 617 312 153 118 102
356 617 313 156 121 105
357 616 312 149 115 98
357 617 312 151 117 100
356 616 314 154 119 102
356 618 312 155 120 103
356 618 313 158 122 107
356 619 312 157 121 105
356 620 312 160 123 109
360 610 304 115 94 73
360 611 304 116 94 71
360 612 304 118 96 71
360 612 305 121 98 73
360 613 304 122 98 73
360 613 305 123 98 74
360 614 304 124 98 74
360 614 305 126 99 76
360 615 304 127 100 78
360 615 305 130 102 79
360 616 304 130 101 80
360 616 305 134 104 82
360 617 304 133 103 83
360 617 305 139 107 85
360 616 306 138 106 85
360 617 306 143 109 87
360 618 304 135 105 83
360 618 305 142 109 88
360 619 304 139 107 86
360 619 305 145 111 90
361 619 304 139 108 86
360 618 306 148 113 91
360 619 306 149 115 94
360 620 304 144 110 91
360 620 305 147 112 92
360 621 304 145 110 93
360 621 305 151 114 97
361 620 304 142 109 90
360 622 304 149 113 96
360 622 305 154 116 98
360 623 304 155 118 102
360 623 305 157 119 103
359 626 303 153 118 102
359 627 303 152 118 102
357 630 303 157 121 106
357 631 303 159 122 107
358 628 303 152 117 100
358 629 303 153 118 101
359 628 302 152 120 103
359 628 303 153 120 103
359 629 302 151 117 99
359 629 303 152 118 99
359 630 301 150 116 99
359 631 301 152 117 100
358 630 302 154 119 103
358 630 303 155 120 104
358 631 302 155 121 106
358 631 303 156 121 106
359 630 302 153 119 103
359 631 302 154 120 105
355 635 303 169 126 111
352 637 303 168 124 107
353 637 303 167 123 106
353 639 301 177 131 117
352 638 302 172 128 112
352 638 303 171 126 109
352 639 302 176 128 113
353 638 302 172 128 113
353 638 303 168 125 109
353 639 302 177 131 117
354 636 303 169 126 109
354 637 302 169 126 110
354 637 303 169 126 109
355 636 303 169 127 110
355 637 302 171 127 109
355 637 303 170 129 111
354 639 301 172 127 110
355 638 301 171 126 109
355 639 300 168 124 106
355 639 301 169 124 106
354 638 302 171 126 111
355 638 302 171 125 108
356 633 303 164 120 105
357 632 303 160 122 107
357 633 302 158 119 105
357 633 303 160 120 105
357 635 301 166 127 111
356 634 303 165 122 107
356 635 302 170 129 112
356 635 303 167 125 108
357 634 302 163 123 108
357 634 303 162 120 105
357 635 302 167 126 110
358 633 301 159 124 108
359 632 301 153 120 102
359 633 301 155 121 103
358 632 302 156 121 107
358 633 302 156 121 106
359 632 302 155 121 105
358 634 301 162 126 111
358 635 300 165 126 111
358 635 301 165 127 111
359 634 300 160 124 108
359 634 301 161 126 109
359 635 300 164 126 111
358 634 302 160 124 108
356 639 299 167 123 107
357 638 299 165 123 106
357 639 299 164 122 105
358 637 299 168 126 110
359 636 299 167 126 110
359 637 299 167 126 110
359 639 297 166 127 112
358 638 299 165 124 107
358 639 298 164 123 106
358 639 299 165 123 107
359 638 298 167 126 109
359 638 299 166 125 108
359 639 298 165 126 110
356 637 301 170 126 109
357 636 301 168 126 109
357 637 300 168 125 109
357 637 301 169 126 109
356 636 302 169 127 109
356 637 302 171 127 110
357 636 302 169 127 110
356 638 300 168 124 107
356 638 301 170 127 110
356 639 300 166 122 104
357 638 300 166 123 106
357 639 300 164 119 102
358 636 300 168 127 112
358 636 301 167 127 112
358 637 300 168 126 109
359 636 300 167 127 111
363 624 296 133 102 82
363 624 297 134 103 82
363 625 296 135 103 84
363 625 297 136 105 85
362 624 298 139 107 88
362 624 299 140 107 88
362 625 298 137 106 85
362 625 299 139 108 88
363 624 298 136 104 83
363 625 298 137 105 84
363 626 296 136 104 85
363 626 297 137 106 86
363 627 296 136 105 85
363 627 297 137 106 86
362 626 298 138 107 86
362 626 299 139 107 87
362 627 298 137 107 86
362 627 299 138 108 88
363 626 298 138 107 86
363 627 298 137 106 84
361 624 301 145 112 93
361 625 300 143 111 91
361 625 301 147 114 95
360 624 303 152 117 100
360 625 302 151 118 100
360 625 303 154 118 102
361 624 302 148 115 97
361 625 302 149 116 99
360 627 301 149 117 102
361 626 300 145 114 94
361 626 301 146 113 94
361 627 300 143 112 93
361 627 301 146 114 95
360 626 302 151 118 102
360 626 303 154 120 104
360 627 302 151 118 103
361 626 302 150 118 101
362 624 300 142 109 91
362 625 300 142 110 91
362 626 300 143 112 93
362 627 300 141 109 90
361 629 299 140 110 90
361 630 299 142 111 91
361 631 299 143 111 92
363 628 296 136 105 82
363 628 297 137 107 86
363 629 296 137 107 84
363 629 297 139 109 88
362 628 298 139 110 90
362 628 299 139 109 90
362 629 298 140 111 91
362 629 299 140 110 90
363 628 298 139 109 88
363 629 298 139 109 89
363 630 296 138 108 85
363 630 297 140 110 90
363 631 296 138 109 87
363 631 297 138 108 88
362 630 298 141 111 91
362 630 299 142 111 92
362 631 298 140 109 90
362 631 299 143 111 92
363 630 298 140 109 91
360 628 301 145 113 97
360 629 301 145 112 95
361 628 300 139 109 88
361 628 301 142 110 92
361 629 300 140 109 89
361 629 301 139 107 88
360 628 302 150 117 100
360 629 302 148 115 97
360 630 301 147 113 96
360 631 300 148 114 96
360 631 301 150 116 98
361 630 300 144 111 92
361 631 300 145 113 94
361 632 299 144 112 95
361 633 299 147 113 96
360 634 299 157 122 105
360 635 299 161 124 107
361 634 298 148 115 97
361 634 299 152 118 100
361 635 298 155 122 103
361 635 299 161 126 109
363 632 296 136 107 86
363 632 297 138 107 87
363 633 296 138 107 88
363 633 297 139 107 88
362 632 298 140 108 90
362 632 299 143 111 94
362 633 298 141 108 91
362 634 297 145 112 94
362 635 297 152 119 102
363 634 296 141 110 92
363 634 297 143 111 92
363 635 296 146 113 96
363 635 297 149 115 98
362 634 298 146 113 95
362 635 298 152 119 100
360 632 300 150 116 98
360 632 301 153 119 102
360 633 300 153 119 101
361 632 300 147 114 96
361 633 300 149 116 98
360 634 300 156 121 104
360 635 300 161 124 108
361 636 297 160 125 109
361 637 297 160 122 106
360 636 299 165 127 111
360 637 298 165 125 110
360 637 299 168 128 112
361 636 298 161 126 109
361 637 298 162 123 108
360 638 297 166 126 111
360 639 297 166 128 113
361 638 296 162 126 113
361 638 297 162 124 110
361 639 296 162 126 112
361 639 297 165 128 113
360 638 298 166 125 109
361 638 298 163 123 107
362 636 296 152 118 100
362 636 297 155 121 104
362 637 296 155 120 103
362 637 297 158 122 105
363 636 296 149 116 98
363 637 296 152 117 101
362 638 296 157 120 106
362 639 296 158 124 108
355 626 307 160 120 105
355 627 307 160 120 105
352 625 311 169 125 109
353 624 311 169 125 110
353 625 310 169 125 110
353 625 311 169 125 110
352 627 309 163 121 105
353 626 309 163 121 106
353 627 309 161 120 105
352 626 310 167 125 109
352 626 311 167 124 108
352 627 310 164 122 106
353 626 310 166 123 108
353 627 310 162 119 103
354 624 309 167 126 111
354 625 309 166 125 111
355 624 309 166 125 110
355 625 308 164 125 110
355 625 309 165 125 111
354 624 310 169 126 111
354 624 311 171 127 113
354 625 310 168 125 111
354 626 308 160 120 106
354 626 309 163 121 108
354 627 308 160 120 105
354 627 309 161 121 107
355 626 308 162 122 108
353 629 307 168 127 108
352 631 307 170 125 106
353 630 307 169 127 108
353 631 307 170 126 108
354 628 307 163 123 106
354 629 307 166 124 107
355 628 306 162 122 106
355 628 307 161 121 105
355 629 306 164 124 107
355 629 307 164 123 107
355 630 305 167 127 111
355 631 305 167 125 110
354 630 306 168 127 110
354 630 307 169 127 109
354 631 306 168 125 107
355 630 306 166 125 108
355 631 306 167 125 108
352 628 309 164 122 107
352 629 308 167 125 107
352 629 309 166 123 106
353 628 308 163 122 106
353 628 309 164 123 107
353 629 308 166 125 107
352 628 310 165 123 108
352 630 308 169 126 106
352 631 308 170 126 107
353 630 308 169 128 109
354 628 308 161 120 103
356 625 307 164 125 110
357 624 306 166 127 111
357 624 307 165 126 111
357 625 306 162 123 108
357 625 307 163 124 108
357 626 305 158 119 106
357 627 305 155 117 104
356 626 306 159 119 105
356 626 307 160 121 106
356 627 306 159 121 106
356 627 307 160 121 107
357 626 306 159 119 105
357 627 306 158 120 105
358 624 305 164 125 109
358 625 305 161 123 107
359 624 304 159 121 106
359 624 305 162 123 107
359 625 304 158 121 106
359 625 305 160 122 106
358 624 306 164 125 109
358 625 306 164 125 109
358 626 304 153 116 101
358 626 305 156 118 104
358 627 304 154 118 103
358 627 305 155 118 104
359 626 304 155 118 104
359 627 304 154 118 103
356 624 308 166 126 110
356 625 308 165 125 111
356 629 305 161 124 107
357 628 304 154 118 104
357 628 305 156 120 105
357 629 304 155 119 105
357 629 305 157 122 105
356 628 306 159 121 105
356 629 306 161 122 105
356 630 305 163 125 109
356 631 304 164 126 110
356 631 305 164 125 108
357 630 304 158 122 107
357 631 304 161 124 109
358 628 304 153 117 102
358 629 304 152 115 99
352 624 312 169 125 108
352 625 312 169 126 108
353 633 305 170 127 109
352 632 307 171 125 108
352 633 306 169 124 108
352 633 307 170 125 109
353 632 306 171 126 109
353 632 307 171 126 110
353 633 306 171 127 111
353 633 307 171 126 110
352 635 305 168 124 107
353 634 305 169 125 107
353 635 304 172 129 113
353 635 305 169 127 109
352 634 306 168 125 108
352 635 306 167 123 106
353 634 306 168 124 107
354 632 305 170 127 111
354 633 305 170 127 110
355 632 305 168 126 110
355 633 304 168 125 109
355 633 305 169 126 110
354 632 306 169 124 108
354 633 306 171 128 112
354 634 304 170 126 110
354 634 305 169 126 109
354 635 304 170 127 111
355 634 304 168 124 108
355 635 304 169 124 110
352 632 308 171 125 107
352 636 304 170 126 109
352 636 305 170 126 109
352 637 304 169 123 106
353 636 304 170 127 110
353 636 305 170 127 109
353 637 304 168 125 108
354 636 304 170 126 111
356 632 304 165 125 109
356 633 304 166 124 108
357 632 304 162 124 109
360 624 304 156 118 103
360 625 304 156 119 103
327 583 327 90 82 77
327 579 335 90 83 79
327 581 330 90 83 79
327 581 331 90 83 79
326 583 329 90 82 78
327 582 328 89 82 78
327 582 329 89 82 78
327 583 328 90 82 78
327 583 329 89 82 78
326 582 331 89 82 79
326 583 330 90 82 78
326 583 331 90 83 79
327 582 330 89 82 79
325 583 333 91 84 79
325 583 334 90 83 79
325 583 335 91 84 80
326 581 332 89 82 79
326 581 333 88 81 78
327 580 332 90 83 79
327 580 333 90 83 78
327 581 332 90 83 78
327 581 333 89 82 78
326 581 334 89 83 79
326 581 335 90 83 80
327 580 334 90 82 78
327 580 335 90 83 79
327 581 334 89 82 78
326 582 332 89 83 79
326 582 333 89 82 78
326 583 332 90 83 78
326 583 333 89 82 78
326 582 334 89 82 79
326 582 335 90 84 80
326 583 334 89 82 79
323 591 323 104 90 77
321 591 326 109 93 80
321 591 327 110 94 81
323 589 327 102 89 79
322 591 324 105 90 78
322 591 325 105 90 78
323 590 325 104 90 79
323 591 324 104 89 77
323 591 325 104 90 78
322 590 327 107 93 81
322 591 326 106 91 79
322 591 327 108 93 81
323 590 326 105 91 80
323 590 327 104 91 80
323 591 326 106 92 80
327 585 323 92 83 77
327 587 320 94 84 77
327 587 321 93 84 78
326 587 323 94 84 77
327 586 322 93 84 78
327 586 323 93 84 78
327 587 322 93 83 77
327 587 323 93 84 78
325 587 325 93 83 76
324 587 327 97 86 79
325 586 326 93 83 76
325 586 327 94 84 77
325 587 326 94 84 76
325 587 327 95 85 78
327 584 325 91 82 77
327 585 324 92 83 77
327 585 325 92 82 76
326 584 327 90 82 76
326 585 326 91 82 75
326 585 327 92 83 76
327 584 326 90 82 78
327 584 327 90 82 77
327 585 326 91 82 76
326 586 324 94 84 78
326 586 325 93 84 77
326 587 324 93 84 77
326 587 325 92 82 75
327 586 324 93 84 77
327 586 325 93 83 77
326 586 326 93 83 76
326 586 327 93 83 76
325 589 323 99 87 78
325 590 321 100 88 78
325 591 320 104 90 79
325 591 321 103 89 79
324 591 322 105 90 79
324 591 323 103 89 78
325 590 322 101 88 78
325 590 323 101 88 78
325 591 322 102 89 79
325 591 323 103 89 78
326 588 321 96 85 78
326 589 320 98 86 78
326 589 321 98 86 78
327 588 320 96 85 78
327 588 321 95 85 78
327 589 320 97 86 78
326 588 322 95 85 78
326 588 323 96 85 78
326 589 322 98 87 78
326 589 323 98 86 78
327 588 322 94 84 78
326 590 320 99 87 77
326 590 321 99 87 78
324 588 325 98 86 77
324 589 324 99 87 77
324 589 325 100 87 78
325 588 324 96 85 77
325 588 325 97 85 77
325 589 324 99 86 77
324 588 326 98 86 78
324 588 327 98 87 79
324 589 326 101 88 78
324 589 327 101 89 79
325 588 326 96 85 78
324 590 324 101 88 77
324 590 325 102 89 78
324 591 324 102 88 77
325 590 324 100 87 77
324 590 326 103 89 79
326 588 324 95 85 78
323 587 331 96 85 78
323 587 332 97 85 75
323 587 333 98 85 75
322 587 334 104 90 78
322 587 335 104 90 78
323 586 335 98 85 75
323 587 334 99 85 75
323 587 335 101 87 76
321 589 331 105 91 79
320 591 329 114 97 84
321 591 328 111 95 82
321 591 329 111 94 81
320 590 331 110 95 81
320 591 330 113 96 83
320 591 331 112 96 82
321 590 330 108 92 80
321 590 331 108 93 80
321 591 330 110 94 81
321 591 331 110 94 81
322 589 329 103 89 78
323 588 328 100 88 80
323 588 329 100 88 80
323 589 328 102 89 79
323 589 329 102 88 78
322 588 331 101 87 77
322 589 330 103 89 78
322 589 331 103 89 78
323 588 330 99 88 79
323 588 331 99 86 77
323 589 330 101 88 78
322 590 328 106 92 80
322 590 329 105 91 78
322 591 328 109 94 82
323 590 328 104 90 79
322 590 330 105 90 78
321 589 332 105 90 78
321 589 333 106 91 79
320 589 334 110 95 82
320 589 335 112 96 82
321 588 334 105 90 78
321 588 335 107 92 79
321 589 334 108 92 80
321 589 335 110 94 81
320 590 332 110 94 81
320 590 333 109 94 81
320 591 332 112 95 81
320 591 333 112 95 81
321 590 332 108 93 80
320 590 334 111 95 81
322 588 332 101 87 76
322 588 333 102 87 76
322 589 332 103 89 77
323 588 332 99 86 75
322 588 334 104 89 78
322 588 335 106 92 80
325 585 329 93 84 79
325 584 331 93 84 79
325 585 330 94 85 79
325 585 331 93 84 79
324 587 328 97 87 80
324 587 329 97 87 80
325 586 328 94 84 78
325 586 329 95 86 80
325 587 328 96 86 79
325 587 329 96 87 81
324 586 330 96 87 81
324 586 331 95 86 79
324 587 330 97 86 80
324 587 331 96 86 79
