ply
format ascii 1.0
element vertex 2219
property float x
property float y
property float z
property uchar red
property uchar green
property uchar blue
end_header
331 106 189 36 44 52
331 107 188 36 44 52
330 106 190 38 45 53
331 106 190 36 44 52
331 106 191 36 44 52
331 108 184 39 46 54
331 108 185 38 46 54
332 107 186 37 45 53
332 107 187 37 44 52
332 107 188 36 44 51
332 107 189 35 43 50
333 107 189 35 42 50
332 106 190 35 43 51
332 106 191 35 43 51
332 107 190 35 42 50
332 107 191 35 42 50
333 107 190 35 42 49
333 107 191 35 42 49
332 108 184 39 47 55
332 108 185 38 46 54
332 109 184 40 47 56
332 109 185 39 47 55
333 109 184 41 49 58
333 109 185 40 48 56
332 108 186 38 45 54
332 108 187 37 45 53
333 108 186 38 46 54
333 108 187 38 45 53
333 109 186 38 46 55
333 109 187 38 46 54
333 110 184 42 50 59
334 109 185 41 49 57
334 109 186 40 48 56
334 109 187 39 46 54
335 109 187 40 48 56
334 110 184 44 52 60
334 110 185 41 49 58
335 110 185 41 49 58
335 111 184 47 55 64
335 111 185 41 50 59
335 110 186 41 49 57
335 110 187 41 49 57
332 108 188 36 44 51
333 108 188 36 44 51
333 108 189 35 43 50
333 108 190 35 42 49
334 108 188 37 45 53
334 108 189 36 43 51
334 109 188 38 46 53
335 109 188 39 46 54
335 109 189 37 44 52
334 108 190 36 42 50
334 108 191 34 41 48
335 108 190 36 43 50
335 108 191 36 42 49
335 109 190 37 44 51
335 109 191 37 43 49
320 112 163 41 47 55
320 113 163 42 49 57
320 112 164 40 47 53
320 113 164 45 53 61
321 112 164 41 48 55
321 112 165 41 47 55
321 113 164 44 51 59
321 113 165 46 53 61
320 114 164 49 57 67
320 114 165 48 57 67
320 115 165 47 57 67
321 114 165 48 57 67
320 115 166 43 53 63
320 115 167 38 48 58
321 114 166 49 57 66
321 115 166 46 55 65
321 115 167 43 52 62
322 112 165 40 47 54
322 112 166 40 46 53
322 113 166 45 52 60
323 112 166 40 47 54
323 112 167 41 47 54
323 113 166 44 52 60
323 113 167 44 51 60
322 114 166 47 56 66
322 115 167 47 56 66
323 114 167 48 56 66
323 115 167 49 57 67
320 116 167 35 44 54
324 112 167 42 48 56
324 113 167 44 52 60
321 115 168 41 50 59
322 115 168 44 53 63
322 115 169 40 50 59
323 114 168 49 57 67
323 115 168 48 57 66
323 115 169 44 53 62
323 115 170 41 50 60
320 116 168 33 42 51
320 116 169 32 39 47
321 116 168 37 46 55
321 116 169 33 42 51
320 116 170 32 38 45
320 116 171 31 37 44
320 117 171 32 37 44
321 116 170 32 39 47
321 116 171 31 38 45
322 116 169 36 45 55
322 116 170 33 42 51
322 116 171 32 40 48
323 116 170 37 46 55
323 116 171 34 42 51
320 117 172 31 37 44
320 117 173 30 37 44
321 116 172 32 38 45
321 116 173 32 38 44
321 117 172 32 38 44
321 117 173 32 38 44
321 117 174 31 37 44
321 117 175 31 37 44
320 118 173 29 36 44
320 118 174 30 37 44
320 118 175 31 38 46
320 119 174 31 39 47
320 119 175 29 38 46
321 118 174 30 37 44
321 118 175 31 38 45
322 116 172 32 39 46
322 116 173 33 38 44
323 116 172 32 39 48
323 116 173 32 38 45
322 116 174 32 37 44
322 117 174 32 38 44
322 117 175 31 37 43
323 116 174 32 37 44
323 116 175 30 36 43
324 112 168 41 47 54
324 113 168 44 52 60
325 112 168 41 47 55
325 112 169 40 47 55
325 113 168 43 51 60
325 113 169 43 52 61
324 114 168 48 56 65
324 115 169 46 56 66
325 114 168 47 56 65
325 114 169 47 56 65
325 115 169 47 56 67
324 115 170 44 53 63
325 115 170 48 56 66
325 115 171 45 53 62
326 112 169 40 47 55
326 113 169 43 52 61
326 112 170 40 47 54
327 112 170 41 48 56
327 112 171 40 47 54
327 113 170 44 52 60
327 113 171 43 51 59
326 114 169 46 55 64
326 114 170 48 57 66
326 115 170 50 58 68
326 115 171 49 57 66
327 114 170 47 55 64
327 114 171 47 55 64
327 115 171 48 56 66
325 115 172 43 51 60
327 112 172 40 47 54
326 115 172 46 54 64
326 115 173 41 50 59
327 115 172 46 55 65
327 115 173 44 53 63
326 115 174 36 45 54
327 115 174 40 50 59
327 115 175 37 46 55
324 116 170 39 48 57
324 116 171 37 46 55
325 116 171 39 47 56
324 116 172 34 42 51
324 116 173 32 39 47
325 116 172 37 45 54
325 116 173 35 43 51
324 116 174 31 37 45
324 116 175 29 36 43
325 116 174 32 40 47
325 116 175 30 38 46
326 116 173 37 46 55
326 116 174 34 43 52
326 116 175 33 42 51
327 116 175 35 44 53
320 120 175 30 40 48
320 121 175 32 41 49
320 122 175 32 42 50
320 123 175 35 44 52
320 124 175 36 45 53
320 125 174 38 46 54
320 125 175 37 45 53
320 126 175 38 45 54
320 127 175 39 46 54
328 113 171 43 51 59
328 112 172 42 49 56
328 112 173 40 47 54
328 113 172 44 51 59
329 112 173 39 47 55
329 113 172 45 52 60
329 113 173 43 51 59
329 112 174 38 46 54
328 114 172 46 55 65
328 115 172 46 55 65
328 115 173 46 55 65
329 114 173 48 56 65
329 115 173 48 57 67
328 115 174 46 55 64
328 115 175 43 52 61
329 114 174 48 57 67
329 115 174 48 57 66
329 115 175 46 55 64
330 112 174 39 47 56
330 112 175 39 47 55
330 113 174 42 50 58
330 113 175 43 51 59
331 113 175 41 49 58
330 114 174 46 54 64
330 114 175 46 54 64
330 115 174 47 56 66
330 115 175 47 56 65
331 114 175 47 55 65
320 119 176 28 37 46
321 118 176 31 38 45
321 119 176 29 37 45
321 119 177 29 37 45
322 117 176 30 36 42
322 117 177 30 36 43
323 116 176 29 35 42
323 117 176 29 36 42
323 117 177 30 36 42
322 118 176 31 37 44
322 118 177 31 37 44
322 119 177 30 37 44
323 118 177 30 36 43
322 118 178 30 36 43
322 119 178 30 37 44
322 119 179 30 36 43
323 118 178 30 36 42
323 118 179 29 35 41
323 119 179 30 36 42
323 119 180 30 35 42
323 119 181 31 36 42
327 115 176 36 44 52
324 116 176 29 35 42
324 116 177 29 35 42
324 117 177 29 35 42
325 116 176 29 36 43
325 116 177 28 35 42
324 117 178 29 35 41
324 117 179 28 34 40
325 116 178 28 35 42
325 117 178 28 35 41
325 117 179 29 35 40
324 118 179 29 35 40
325 118 179 30 35 40
326 116 176 31 39 46
326 116 177 29 37 44
327 116 176 33 41 49
327 116 177 30 38 45
326 116 178 29 36 43
326 116 179 29 35 42
326 117 179 29 35 41
327 116 178 30 37 44
327 116 179 29 35 42
327 117 179 29 35 41
325 117 180 30 35 40
324 118 180 29 34 40
324 118 181 30 35 40
324 119 180 30 35 41
324 119 181 30 35 41
325 118 180 30 35 40
325 118 181 29 34 40
324 119 182 30 35 40
324 119 183 31 35 40
325 118 182 30 35 40
325 118 183 30 35 40
325 119 183 30 35 39
326 117 180 29 35 40
326 117 181 29 34 40
327 116 180 29 35 41
327 117 180 29 35 40
327 117 181 30 35 40
326 117 182 28 34 39
327 117 182 29 34 40
327 117 183 28 33 39
326 118 182 28 34 39
326 118 183 29 34 39
327 118 183 28 34 40
325 119 184 30 35 40
326 118 184 28 34 40
326 119 184 29 34 40
326 119 185 29 34 40
327 118 184 28 34 40
327 118 185 28 34 41
327 119 185 28 34 41
326 119 186 29 34 40
326 119 187 28 35 42
327 119 186 28 35 42
327 119 187 28 36 43
327 119 188 32 40 48
320 120 176 29 38 47
320 121 176 30 39 48
321 120 176 29 38 47
321 120 177 29 38 46
321 121 177 30 38 47
321 120 178 30 38 45
321 121 178 30 38 46
320 122 176 31 40 49
320 123 176 34 42 51
320 123 177 32 41 50
321 122 177 30 39 48
321 123 177 32 40 49
321 122 178 29 38 46
321 122 179 32 39 46
321 123 178 31 39 47
321 123 179 33 39 46
322 120 178 30 38 45
322 120 179 30 37 44
322 121 179 30 38 45
322 122 179 31 38 45
322 120 180 31 38 44
322 121 180 31 38 45
322 121 181 33 38 44
323 120 180 31 37 43
323 120 181 31 37 43
323 121 181 33 38 44
323 120 182 31 36 42
323 120 183 31 36 42
323 121 182 32 37 43
323 121 183 31 36 41
322 122 180 31 37 45
322 122 181 33 39 45
322 123 180 31 37 44
322 123 181 32 38 45
323 122 181 33 38 45
323 122 182 32 38 44
323 122 183 32 37 42
323 123 182 33 39 45
323 123 183 32 38 44
320 124 176 36 44 52
320 124 177 35 43 52
320 125 176 36 44 52
320 125 177 36 44 52
321 124 177 34 42 50
321 125 177 35 43 51
321 124 178 33 40 48
321 124 179 34 40 47
321 125 178 34 41 49
321 125 179 35 41 48
320 126 176 36 44 52
320 126 177 36 44 52
320 127 176 38 45 53
321 126 177 35 43 51
321 127 177 36 44 52
321 126 178 34 42 49
321 126 179 35 42 48
321 127 178 36 43 50
321 127 179 36 42 49
322 126 179 36 41 48
322 127 179 35 41 48
322 124 180 32 38 45
322 124 181 31 38 45
322 125 180 32 39 46
322 125 181 33 39 46
323 125 181 33 40 47
323 124 182 31 38 45
323 124 183 32 39 45
323 125 182 32 39 46
323 125 183 32 39 46
322 126 180 33 40 47
322 126 181 33 40 47
322 127 180 34 40 47
322 127 181 34 40 47
323 126 181 34 41 48
323 127 181 34 41 48
323 126 182 33 40 47
323 126 183 32 39 46
323 127 182 34 41 48
323 127 183 33 40 47
324 120 182 31 35 40
324 120 183 31 36 41
324 127 183 32 39 46
323 121 184 32 36 41
323 122 184 33 37 42
323 123 184 33 38 43
323 124 184 32 38 45
323 125 184 32 39 46
324 120 184 31 36 40
324 120 185 32 36 41
324 121 184 32 36 41
324 121 185 32 36 41
325 120 184 31 35 40
325 120 185 31 35 40
325 120 186 31 35 40
325 121 186 31 35 40
325 121 187 30 35 40
324 122 184 33 37 42
324 122 185 32 36 42
324 123 184 33 38 43
324 123 185 32 37 43
324 122 186 32 36 41
324 123 186 32 36 42
325 122 186 32 36 41
325 122 187 31 36 41
325 123 186 33 37 42
325 123 187 32 37 42
326 120 186 29 35 41
326 120 187 29 35 41
326 121 187 30 35 41
325 122 188 30 35 41
325 123 188 31 36 42
326 120 188 28 35 43
326 121 188 31 36 42
326 121 189 31 37 44
327 120 188 30 38 46
327 120 189 33 41 49
327 121 189 30 38 46
327 121 190 33 41 49
326 122 188 30 36 42
326 122 189 30 36 42
326 123 189 30 35 41
326 123 190 31 37 43
327 122 190 32 38 45
327 122 191 32 39 46
327 123 190 31 37 44
327 123 191 31 37 44
324 124 184 32 38 45
324 124 185 32 38 45
324 125 184 32 39 46
324 125 185 32 38 45
324 124 186 31 37 44
324 125 186 32 38 44
325 124 186 32 37 43
325 124 187 32 37 42
325 125 186 31 37 43
325 125 187 32 37 43
324 126 184 32 39 46
324 126 185 31 38 45
324 127 184 33 39 46
324 127 185 32 39 46
325 127 185 32 39 46
324 126 186 31 38 45
324 127 186 30 37 44
325 126 186 32 38 45
325 126 187 32 37 43
325 127 186 32 38 45
325 127 187 32 37 43
325 124 188 32 37 43
325 124 189 32 37 43
325 125 188 32 36 42
325 125 189 32 37 43
325 126 188 31 36 42
325 126 189 32 37 42
325 127 188 31 36 42
325 127 189 31 36 41
326 124 189 32 37 42
326 125 189 31 36 42
326 124 190 30 36 42
326 124 191 30 36 42
326 125 190 30 35 41
326 125 191 30 35 41
327 124 191 30 36 42
327 125 191 29 35 41
326 126 189 31 36 41
326 127 189 31 35 41
326 126 190 31 35 41
326 126 191 30 35 40
326 127 190 31 35 40
326 127 191 30 34 39
327 126 191 29 34 40
327 127 191 30 34 39
328 115 176 39 48 56
329 115 176 44 52 61
330 112 176 39 46 54
331 112 176 39 47 55
331 112 177 37 46 54
331 113 176 40 48 57
330 115 176 47 55 64
331 114 176 45 54 64
331 115 176 47 56 65
331 115 177 45 53 63
328 116 176 37 45 53
328 116 177 33 40 48
329 116 176 39 46 55
329 116 177 37 44 53
328 116 178 31 38 45
328 116 179 30 36 43
329 116 178 34 41 49
329 116 179 31 38 45
330 116 177 41 49 57
331 116 177 41 50 59
330 116 178 35 44 51
330 116 179 31 39 47
331 116 178 37 45 53
331 116 179 32 41 49
331 117 179 31 39 48
328 116 180 29 35 41
328 117 180 29 34 40
328 117 181 29 35 40
329 116 180 29 36 43
329 117 180 29 35 42
329 117 181 29 35 42
328 117 182 29 34 40
328 117 183 27 34 40
329 117 182 28 35 42
329 117 183 28 35 42
328 118 183 28 34 40
329 118 183 29 36 43
330 116 180 30 37 44
330 117 180 30 37 45
330 117 181 29 36 44
331 117 180 30 38 46
331 117 181 29 37 46
330 117 182 28 36 43
330 117 183 29 36 44
331 117 182 30 38 45
331 117 183 30 38 46
330 118 183 30 38 46
331 118 183 31 39 48
332 112 177 38 46 54
332 113 176 40 48 57
332 113 177 42 50 59
333 113 177 39 48 57
332 112 178 36 44 52
333 112 178 36 44 52
333 112 179 38 45 53
333 113 178 37 45 54
332 114 176 43 52 61
332 114 177 44 53 63
332 115 176 47 56 65
332 115 177 45 54 64
333 114 177 44 54 63
332 115 178 46 55 65
333 114 178 39 48 57
333 115 178 45 55 65
334 112 179 40 47 55
334 113 178 37 46 55
334 113 179 41 48 56
334 114 178 39 49 58
334 114 179 40 48 57
334 115 178 43 53 63
334 115 179 44 53 63
334 112 180 39 47 54
334 112 181 39 47 55
335 112 180 39 47 55
335 112 181 39 47 56
335 113 180 42 50 58
335 113 181 41 50 59
335 112 182 39 48 57
335 112 183 43 51 60
335 113 182 38 47 56
335 114 180 44 51 60
335 114 181 46 54 63
335 115 180 44 53 63
335 115 181 46 55 65
332 116 178 40 49 59
332 116 179 34 44 53
333 116 179 41 51 60
334 116 179 46 56 66
332 117 180 32 41 50
332 117 181 31 40 48
333 116 180 39 48 57
333 117 180 37 46 56
333 117 181 36 45 55
332 117 182 32 40 49
333 117 182 36 45 53
333 117 183 37 46 56
332 118 183 34 42 51
333 118 183 38 46 55
334 116 180 46 55 65
334 117 180 42 51 61
334 117 181 43 52 62
335 116 180 47 56 66
335 116 181 46 56 66
334 117 182 42 52 62
334 117 183 40 50 60
335 116 182 46 56 66
335 116 183 45 56 66
335 117 182 45 55 65
335 117 183 44 54 64
328 118 184 28 35 42
328 118 185 28 36 43
329 118 184 29 37 44
329 118 185 30 38 46
328 118 186 30 38 45
328 119 186 30 37 45
328 119 187 32 40 48
329 118 186 33 41 50
329 119 186 32 40 49
329 119 187 37 45 54
330 118 184 31 39 47
330 118 185 34 42 51
331 118 184 33 42 51
331 118 185 36 45 54
330 118 186 37 45 54
330 118 187 39 47 56
330 119 187 40 48 58
331 118 186 39 47 56
331 118 187 40 49 59
331 119 187 41 49 59
328 119 188 37 44 52
328 119 189 40 47 56
329 119 188 40 48 57
329 119 189 41 50 59
329 119 190 40 49 58
330 119 188 39 48 58
330 119 189 40 49 59
331 119 188 40 50 60
331 119 189 40 49 60
330 119 190 39 48 58
331 119 190 37 47 58
331 119 191 37 47 58
332 118 184 37 45 54
332 118 185 40 49 58
333 118 184 42 51 60
333 118 185 44 53 63
332 118 186 41 50 59
332 118 187 41 51 61
333 118 186 45 54 64
333 118 187 46 55 65
334 117 184 40 50 61
335 117 184 43 54 64
335 117 185 44 54 65
335 117 186 43 54 65
334 118 184 40 50 60
334 118 185 42 53 63
335 118 185 43 54 64
334 118 186 45 54 64
334 118 187 45 55 65
335 118 186 43 54 65
335 118 187 42 53 64
332 118 188 43 53 63
332 119 188 42 52 62
332 119 189 43 53 63
333 118 188 44 54 64
333 118 189 42 53 64
333 119 189 42 53 64
332 119 190 37 47 58
332 119 191 37 48 59
333 119 190 38 50 61
333 119 191 41 52 64
334 118 188 43 53 64
334 118 189 41 53 64
335 118 188 43 54 66
335 118 189 43 54 66
334 119 190 42 53 65
334 119 191 44 55 66
335 118 190 45 56 68
335 119 190 45 55 67
335 119 191 44 55 66
328 120 189 38 46 54
328 120 190 36 45 54
328 120 191 36 44 53
328 121 190 33 42 50
328 121 191 32 41 50
329 120 190 38 47 56
329 120 191 36 45 55
328 122 191 32 40 48
330 120 190 39 48 58
330 120 191 38 47 57
331 120 191 37 47 57
336 111 184 46 55 64
336 111 185 40 49 59
336 110 186 41 49 57
336 110 187 42 50 58
336 111 186 42 50 59
336 111 187 44 52 61
337 111 186 42 50 59
337 111 187 45 53 61
336 109 189 39 46 53
336 109 190 38 45 52
336 109 191 40 45 53
336 110 188 41 48 56
336 110 189 40 47 54
337 110 188 43 50 58
337 110 189 41 48 56
337 111 188 42 50 58
337 111 189 41 49 57
336 110 190 39 46 54
336 110 191 41 47 55
337 110 190 40 47 55
337 110 191 40 47 54
337 111 190 40 47 56
338 111 189 40 48 57
338 110 191 39 47 55
338 111 190 41 49 57
338 111 191 40 48 57
336 112 182 41 49 58
336 112 183 46 54 64
336 113 182 42 50 59
336 113 183 46 55 64
336 114 181 45 54 63
336 115 181 46 55 65
336 114 182 43 52 61
336 114 183 46 54 64
336 115 182 45 54 64
336 115 183 46 55 65
337 114 183 48 57 67
337 115 183 48 58 68
336 116 182 46 55 66
336 116 183 47 56 67
336 112 184 47 55 65
336 112 185 40 50 60
337 112 184 45 54 64
337 112 185 42 52 62
337 113 184 47 56 66
337 113 185 45 55 65
337 112 186 44 53 63
337 112 187 46 54 63
337 113 186 44 54 64
337 114 184 48 57 68
337 114 185 47 58 68
337 115 184 48 58 69
337 115 185 51 62 73
338 112 187 44 53 62
338 113 186 45 55 65
338 113 187 46 54 64
339 113 187 44 53 63
338 114 185 48 59 69
338 115 185 50 60 71
338 114 186 46 56 67
338 114 187 47 57 67
338 115 186 50 61 72
338 115 187 51 61 72
339 114 187 46 55 66
339 115 187 49 59 70
338 112 188 41 50 59
338 112 189 40 49 57
339 112 188 41 50 60
339 112 189 39 48 57
339 113 188 43 52 62
339 113 189 42 51 61
338 112 190 41 49 58
339 112 190 43 51 60
339 112 191 42 51 60
339 113 190 43 52 61
339 113 191 44 52 62
339 114 188 45 54 65
339 114 189 44 53 64
339 115 188 45 56 67
339 115 189 44 55 66
339 114 190 42 52 62
336 116 184 47 57 69
336 116 185 47 57 69
336 117 184 46 56 67
336 117 185 44 55 66
337 116 184 47 58 70
337 116 185 52 62 73
336 117 186 43 54 65
336 117 187 44 56 67
337 116 186 54 64 75
337 116 187 53 63 75
337 117 186 47 58 69
337 117 187 48 59 71
336 118 187 41 53 65
338 116 186 55 65 76
338 116 187 54 64 76
337 117 188 47 59 71
337 117 189 44 56 68
336 118 188 47 58 70
336 118 189 44 56 68
337 118 189 42 54 66
336 118 190 45 56 67
336 118 191 44 54 65
336 119 191 42 52 62
337 118 190 39 52 63
337 118 191 39 50 60
337 119 191 36 47 57
338 116 188 48 59 71
338 117 188 45 57 70
338 117 189 41 53 65
339 116 188 45 56 67
339 116 189 45 55 66
339 117 189 43 54 66
339 116 190 46 56 67
339 117 190 43 54 65
339 117 191 44 54 65
338 118 189 39 52 63
338 118 190 38 49 60
338 118 191 38 48 59
339 118 191 42 53 63
340 113 190 42 51 62
340 113 191 41 51 61
340 114 190 41 51 62
340 114 191 42 52 63
340 115 190 43 54 65
340 115 191 43 54 64
340 116 190 46 56 67
340 116 191 46 56 66
340 117 191 44 55 65
327 64 207 91 96 105
327 65 207 95 100 108
327 66 207 90 93 100
327 67 207 88 82 81
327 68 207 95 83 73
327 69 207 82 73 66
327 70 207 52 55 60
327 71 207 47 54 61
327 72 207 47 52 59
327 73 207 46 53 62
327 74 207 51 58 67
327 75 207 45 52 60
327 76 207 32 41 50
327 77 207 29 38 46
330 64 192 66 64 65
330 64 193 67 66 67
330 65 192 60 59 61
330 65 193 60 60 62
330 64 194 73 70 71
330 64 195 73 70 69
330 65 194 66 65 66
330 65 195 71 70 71
330 66 192 51 52 56
330 66 193 50 52 56
330 67 192 49 56 64
330 67 193 47 52 59
330 66 194 50 52 56
330 66 195 53 55 59
330 67 194 45 50 56
330 67 195 41 47 54
331 67 195 41 47 55
330 64 196 73 69 69
330 64 197 74 72 72
330 65 196 72 70 70
330 65 197 71 69 70
330 64 198 82 81 83
330 64 199 80 79 82
330 65 198 72 70 71
330 65 199 76 73 73
330 66 196 63 62 64
330 66 197 63 62 63
331 66 196 55 56 59
331 66 197 56 57 58
331 67 196 44 49 55
331 67 197 51 53 57
330 66 198 56 56 57
330 66 199 55 53 53
330 67 199 50 51 53
331 66 198 55 55 57
331 67 198 51 52 56
331 67 199 50 53 57
330 68 192 54 61 70
330 68 193 49 57 67
330 69 192 51 59 68
330 69 193 56 63 72
330 68 194 45 53 62
330 69 194 55 63 72
331 68 194 44 52 61
331 68 195 41 49 59
331 69 194 55 63 72
331 69 195 52 61 71
330 70 192 44 53 63
330 70 193 46 55 65
330 71 192 39 48 58
330 71 193 38 49 58
330 70 194 45 55 65
330 71 194 40 51 61
331 70 194 55 63 72
331 70 195 60 67 76
331 71 194 40 50 61
331 71 195 45 54 64
331 68 196 41 50 59
331 68 197 46 51 58
331 69 196 46 56 66
331 69 197 47 55 64
331 68 198 47 51 56
331 68 199 46 51 56
331 69 198 49 54 62
331 69 199 41 48 57
331 70 196 55 63 72
331 70 197 48 57 67
331 71 196 47 56 66
331 71 197 41 52 62
331 70 198 52 59 69
331 70 199 51 59 68
331 71 198 40 51 62
331 71 199 49 58 69
329 64 200 75 78 84
329 64 201 74 78 85
329 65 201 74 77 82
329 64 202 76 81 88
329 64 203 82 86 94
329 65 202 75 78 83
329 65 203 74 78 84
329 66 202 77 75 78
329 66 203 86 86 90
329 67 203 71 69 71
330 64 200 76 77 81
330 65 200 80 78 80
330 65 201 79 80 83
330 65 202 82 82 86
330 66 200 60 57 58
330 66 201 64 63 64
330 67 200 51 52 54
330 67 201 56 56 58
330 66 202 71 70 72
330 67 202 58 57 59
328 64 204 90 95 104
328 64 205 89 95 104
328 65 205 89 96 106
329 64 204 88 93 100
329 65 204 81 86 94
328 64 206 92 96 104
328 65 206 93 98 107
328 65 207 95 99 107
328 66 205 78 81 86
328 67 205 89 83 81
329 66 204 81 81 84
329 66 205 74 76 80
329 67 204 91 88 88
329 67 205 96 90 87
328 66 206 89 91 97
328 66 207 91 93 99
328 67 206 87 80 77
328 67 207 88 82 78
329 68 203 56 55 56
329 69 203 50 52 55
330 68 200 49 52 56
330 68 201 50 54 58
330 69 201 47 53 60
331 68 200 47 52 57
331 69 200 42 49 56
331 69 201 44 51 58
330 68 202 54 56 60
330 68 203 53 54 57
330 69 202 50 55 61
330 69 203 49 52 57
331 70 200 47 55 65
331 70 201 48 55 64
331 71 200 54 62 72
331 71 201 53 62 72
330 70 202 51 57 65
330 70 203 48 53 59
330 71 202 53 60 70
330 71 203 48 54 62
328 68 205 95 85 78
328 69 205 60 56 54
329 68 204 67 63 62
329 68 205 86 77 72
329 69 204 50 51 54
329 69 205 53 53 53
328 68 206 99 88 80
328 68 207 98 86 75
328 69 206 69 63 58
328 69 207 77 68 61
329 70 204 45 49 55
329 70 205 42 49 57
329 71 204 43 47 54
329 71 205 42 47 55
328 70 206 45 52 60
328 70 207 50 54 60
328 71 206 44 52 60
328 71 207 48 54 62
330 72 192 33 44 54
330 72 193 30 42 53
330 73 192 31 42 53
330 73 193 30 42 52
330 72 194 30 42 53
330 72 195 30 42 53
330 73 194 29 41 52
330 73 195 31 42 52
330 74 192 34 44 54
330 74 193 34 44 53
330 75 192 40 49 58
330 75 193 38 47 56
330 74 194 36 45 54
330 74 195 36 45 54
330 75 194 36 45 54
330 75 195 38 46 55
330 72 196 31 43 53
330 73 196 35 45 54
330 73 197 38 47 56
331 72 196 35 47 57
331 72 197 36 47 58
331 73 197 37 47 57
330 73 198 38 48 57
331 72 198 34 46 57
331 72 199 36 48 58
331 73 198 37 47 57
331 73 199 38 48 57
330 74 196 37 46 55
330 74 197 41 49 57
330 75 196 39 47 55
330 75 197 42 49 57
330 74 198 40 48 56
330 74 199 41 48 56
330 75 198 43 49 57
330 75 199 40 46 54
329 77 192 44 52 61
329 78 192 45 53 62
329 79 192 46 54 64
329 79 193 44 53 62
329 79 194 43 51 60
330 76 192 42 50 59
330 76 193 40 49 58
330 77 192 43 52 60
330 77 193 42 50 59
330 76 194 40 48 57
330 76 195 40 48 56
330 77 194 41 49 58
330 77 195 41 49 57
330 78 193 43 51 60
330 78 194 43 51 59
330 78 195 41 49 58
330 79 194 43 51 60
330 79 195 42 51 60
330 76 196 41 48 56
330 76 197 43 49 57
330 77 196 42 49 57
330 77 197 42 49 57
330 76 198 44 50 57
330 76 199 42 48 56
330 77 198 43 49 58
330 77 199 43 49 57
330 78 196 40 48 57
330 78 197 41 49 57
330 79 196 41 50 59
330 79 197 41 49 59
330 78 198 43 51 59
330 78 199 43 50 58
330 79 198 41 49 59
330 79 199 43 51 60
331 72 200 43 53 63
331 72 201 51 60 70
331 73 200 34 45 55
331 73 201 35 46 56
330 72 202 53 62 72
330 72 203 54 61 70
330 73 202 38 48 58
330 73 203 49 56 65
330 74 200 38 46 54
330 74 201 34 44 53
330 75 200 38 45 53
330 75 201 36 44 52
331 74 200 35 44 53
331 74 201 33 43 52
330 74 202 31 41 51
330 74 203 32 43 52
330 75 202 35 43 51
330 75 203 31 40 49
329 72 204 45 51 59
329 72 205 45 48 55
329 73 204 55 61 69
329 73 205 51 56 65
328 72 206 43 49 57
328 72 207 46 52 60
328 73 206 46 53 62
328 73 207 48 56 66
329 74 204 44 51 59
329 74 205 50 56 64
329 75 205 34 42 51
328 74 206 52 58 65
328 74 207 50 56 64
328 75 206 42 49 56
328 75 207 41 48 57
330 72 204 51 58 67
330 73 204 54 60 69
330 74 204 39 47 56
330 75 204 31 40 49
329 79 203 41 48 56
330 76 200 40 46 54
330 76 201 40 46 54
330 77 200 42 48 55
330 77 201 41 47 54
330 76 202 36 43 51
330 76 203 32 40 48
330 77 202 39 45 52
330 77 203 37 43 50
330 78 200 41 48 56
330 78 201 40 47 55
330 79 200 42 50 59
330 79 201 40 48 56
330 78 202 39 46 54
330 78 203 40 47 54
330 79 202 40 48 56
330 79 203 40 47 55
329 76 205 32 40 49
329 77 205 33 40 48
328 76 206 32 40 48
328 76 207 29 38 47
328 77 206 33 40 47
328 77 207 32 40 47
329 77 206 34 41 47
329 78 204 39 45 52
329 78 205 39 44 51
329 79 204 40 46 53
329 79 205 40 45 52
328 78 206 38 44 50
328 78 207 38 43 49
328 79 206 40 44 50
328 79 207 40 44 50
329 78 206 39 44 50
329 79 206 40 44 50
330 76 204 32 40 48
330 77 204 36 42 50
330 78 204 39 45 52
330 79 204 39 46 53
323 64 215 111 116 125
323 65 215 106 113 124
322 67 215 102 111 125
323 66 214 107 114 127
323 66 215 104 112 124
323 67 214 106 114 126
323 67 215 104 112 125
321 70 215 76 79 85
321 71 215 79 79 81
323 68 213 99 109 121
323 69 213 97 102 112
322 68 215 100 110 122
322 69 214 97 102 111
322 69 215 98 105 116
323 68 214 104 112 124
323 68 215 103 112 125
323 69 214 101 106 116
322 71 213 91 87 87
323 70 212 86 79 75
323 70 213 85 82 82
323 71 212 84 78 75
323 71 213 90 86 84
322 70 214 78 77 80
322 70 215 85 88 95
322 71 214 87 84 85
323 70 214 89 91 96
325 66 211 102 108 117
325 67 211 97 104 115
326 64 209 93 101 112
326 65 209 100 106 117
327 64 208 91 98 108
327 64 209 91 100 111
327 65 208 95 102 112
327 65 209 98 105 117
326 64 210 95 104 115
326 64 211 95 102 113
326 65 210 100 106 116
326 65 211 99 106 116
326 66 209 102 108 118
326 67 209 95 102 111
327 66 208 94 100 109
327 66 209 98 106 117
327 67 208 90 90 93
326 66 210 103 108 117
326 66 211 102 107 117
326 67 210 99 105 116
324 64 213 98 104 115
324 65 213 102 109 121
325 64 212 94 101 112
325 64 213 96 102 112
325 65 212 98 105 116
325 65 213 100 108 119
324 64 214 101 107 118
324 64 215 107 113 123
324 65 214 102 110 122
324 65 215 107 113 124
324 66 213 104 112 124
324 67 212 100 108 119
324 67 213 103 111 123
325 66 212 102 108 119
325 66 213 103 110 122
325 67 212 99 105 116
324 66 214 105 113 126
324 67 214 106 114 127
324 69 211 82 78 78
325 68 210 83 91 103
325 68 211 91 99 111
325 69 210 79 79 83
325 69 211 80 82 87
325 71 209 53 52 53
324 70 211 94 86 82
324 71 211 69 63 60
325 70 210 89 82 79
325 70 211 93 85 81
325 71 210 62 58 58
326 68 209 80 83 88
326 69 208 95 90 89
326 69 209 87 84 85
327 68 208 86 78 71
327 69 208 89 81 76
326 68 210 87 95 107
326 69 210 71 74 81
326 70 208 62 66 72
326 70 209 77 73 72
326 71 208 45 52 60
326 71 209 49 53 58
327 70 208 54 58 63
327 71 208 44 51 59
324 68 212 94 103 116
324 68 213 99 108 121
324 69 212 85 89 96
324 69 213 96 105 116
325 68 212 92 101 113
324 70 212 90 84 81
324 71 212 83 76 72
321 65 217 103 112 126
320 64 219 109 118 132
320 65 219 108 117 130
321 64 218 107 116 130
321 65 218 106 116 129
321 66 217 103 112 126
321 67 216 103 113 127
321 67 217 105 115 128
320 66 218 106 115 128
320 66 219 103 113 126
320 67 218 110 118 131
321 66 218 104 113 127
322 64 216 107 116 129
322 64 217 103 113 127
322 65 216 102 112 125
322 65 217 103 113 126
323 64 216 108 115 127
323 65 216 103 112 124
322 66 216 100 110 124
322 66 217 102 112 125
322 67 216 102 112 126
323 66 216 102 111 124
320 68 217 106 114 126
320 69 216 96 105 117
320 69 217 104 112 124
321 68 216 99 109 122
321 68 217 102 111 124
321 69 216 98 106 119
320 68 218 110 117 129
320 70 216 82 89 98
320 70 217 89 95 105
320 71 216 75 75 79
321 70 216 85 91 100
321 71 216 69 71 76
322 68 216 100 109 123
323 74 211 48 55 63
323 75 211 48 55 63
320 73 215 53 56 61
321 72 214 78 77 79
321 72 215 82 81 83
321 73 214 48 52 60
321 73 215 51 54 60
321 75 213 39 47 55
320 74 215 49 54 62
320 75 215 48 54 62
321 74 214 42 48 57
321 74 215 46 53 61
321 75 214 41 49 57
322 72 213 64 66 69
322 73 212 49 50 58
322 73 213 47 49 58
323 72 212 53 56 61
323 72 213 70 69 71
323 73 212 44 50 57
322 72 214 75 75 77
322 73 214 51 55 60
322 74 212 42 48 56
322 74 213 42 47 56
322 75 212 39 47 56
322 75 213 38 46 55
323 74 212 40 48 56
323 75 212 41 49 57
323 76 211 48 54 62
323 77 211 37 46 54
323 78 211 29 39 47
321 76 213 42 49 58
321 77 213 45 51 59
320 76 215 49 55 62
320 77 215 47 53 61
321 76 214 43 50 58
321 77 214 44 50 58
320 78 215 41 48 55
320 79 215 30 39 48
321 78 214 40 48 55
321 79 214 34 42 50
321 79 215 30 39 47
322 76 212 42 50 58
322 76 213 43 50 59
322 77 212 41 49 57
322 77 213 44 51 59
323 76 212 45 52 60
323 77 212 41 48 56
322 78 212 28 38 47
322 78 213 33 42 50
322 79 213 29 39 48
323 78 212 29 38 47
323 79 212 30 39 47
322 79 214 33 41 49
325 72 209 43 51 60
325 73 209 42 49 57
324 72 210 46 54 63
324 72 211 52 57 63
324 73 210 46 54 62
324 73 211 48 55 62
325 72 210 46 53 60
325 73 210 43 51 60
325 74 208 42 51 61
325 74 209 38 48 59
325 75 208 50 58 67
325 75 209 45 53 62
324 74 210 47 55 64
324 74 211 52 59 67
324 75 210 49 56 65
324 75 211 52 59 67
326 72 208 42 46 52
326 72 209 40 48 56
326 73 208 41 48 55
327 72 208 45 49 56
326 74 208 44 53 63
326 75 208 48 55 64
324 72 212 54 55 58
325 76 209 46 54 62
325 77 209 31 41 50
324 76 210 48 55 63
324 76 211 50 56 64
324 77 210 34 44 52
324 77 211 35 44 52
325 77 210 28 38 48
325 78 209 28 37 46
325 79 209 34 41 49
324 78 210 29 38 47
324 78 211 28 38 46
324 79 211 34 42 50
325 78 210 30 39 47
325 79 210 37 44 51
326 76 208 34 44 53
326 77 208 26 37 46
327 76 208 28 38 47
327 77 208 27 37 46
326 78 208 30 39 47
326 78 209 28 37 46
326 79 209 34 41 49
327 78 208 33 40 48
327 79 208 35 41 49
327 79 209 34 41 49
324 79 212 34 42 50
320 72 216 91 87 89
320 73 216 61 60 62
320 74 216 52 57 63
320 75 216 50 56 63
320 78 216 42 49 56
320 79 216 34 43 51
327 83 198 42 51 61
327 83 199 44 52 61
325 87 192 33 42 51
325 87 193 34 42 50
325 87 194 35 43 52
325 87 195 35 43 51
326 85 192 39 47 55
326 85 193 40 47 55
327 84 192 39 48 57
327 84 193 41 48 56
327 85 192 39 47 55
327 85 193 41 48 56
326 85 194 41 48 56
326 85 195 40 48 57
327 84 194 41 48 57
327 84 195 42 50 59
327 85 194 42 50 58
327 85 195 42 50 58
326 86 192 37 45 53
326 86 193 36 44 52
326 86 194 37 45 53
326 86 195 38 46 54
325 87 196 36 43 52
325 87 197 38 45 53
325 87 198 36 43 51
325 87 199 37 44 52
326 85 196 41 49 58
326 85 197 43 50 59
327 84 196 42 51 60
327 84 197 42 51 60
327 85 196 42 50 59
327 85 197 43 51 60
326 85 198 42 49 58
326 85 199 41 48 57
327 84 198 42 51 60
327 84 199 43 51 59
326 86 196 40 48 56
326 86 197 40 48 56
326 86 198 39 47 55
326 86 199 40 47 55
327 83 200 43 51 60
327 83 201 43 50 59
327 83 202 42 50 58
327 83 203 41 50 60
327 83 204 43 51 61
327 83 205 43 50 59
327 82 207 41 47 55
327 83 206 41 48 57
327 83 207 41 48 56
325 87 200 37 45 53
325 87 201 34 44 53
325 87 202 36 45 55
325 87 203 40 48 57
326 85 200 41 49 57
326 85 201 41 49 57
327 84 200 42 50 59
327 84 201 43 50 59
326 85 202 40 49 57
326 85 203 44 51 60
327 84 202 42 50 59
327 84 203 42 50 59
326 86 200 40 47 55
326 86 201 38 46 55
326 86 202 39 47 56
326 86 203 42 50 59
325 87 204 41 49 57
325 87 205 39 47 56
325 87 206 41 49 57
325 87 207 43 50 58
326 85 204 45 53 61
326 85 205 45 51 60
327 84 204 44 52 61
327 84 205 43 50 59
326 84 207 42 49 58
326 85 206 43 50 58
326 85 207 43 50 58
327 84 206 41 48 57
327 84 207 42 49 58
326 86 204 42 50 58
326 86 205 41 49 57
326 86 206 43 50 59
326 86 207 45 51 60
323 89 193 33 41 49
323 89 194 35 42 49
323 89 195 36 43 50
322 91 192 34 41 49
322 91 193 34 41 48
323 90 192 35 42 49
323 90 193 35 42 49
323 91 192 34 41 49
323 91 193 35 41 49
322 91 194 34 41 48
322 91 195 36 42 49
323 90 194 35 42 49
323 90 195 37 43 50
323 91 194 35 41 48
323 89 196 36 42 50
323 89 197 36 43 50
323 89 198 37 43 51
323 89 199 34 42 49
322 91 196 35 42 49
322 91 197 35 42 49
323 90 196 37 43 50
323 90 197 36 43 50
322 91 198 35 42 49
322 91 199 35 41 49
323 90 198 37 44 51
323 90 199 35 42 50
321 94 192 36 43 50
321 94 193 36 43 51
321 95 192 35 43 50
321 95 193 35 43 51
321 95 194 35 43 50
322 92 192 34 41 49
322 92 193 35 41 48
322 93 192 35 42 50
322 93 193 35 42 50
322 92 194 35 42 49
322 92 195 35 42 49
322 93 194 35 42 50
322 93 195 35 42 50
322 94 194 36 43 51
322 94 195 36 43 51
322 95 194 36 43 50
322 95 195 36 44 51
322 92 196 34 41 48
322 92 197 35 42 49
322 93 196 35 42 50
322 93 197 35 42 50
322 92 198 34 42 49
322 92 199 34 41 48
322 93 198 35 42 50
322 93 199 34 42 49
322 94 196 35 43 50
322 94 197 36 43 50
322 95 196 37 43 50
322 95 197 36 43 50
322 94 198 35 43 51
322 94 199 35 42 50
322 95 198 36 43 50
322 95 199 36 43 50
324 88 192 33 41 49
324 88 193 33 41 50
324 89 192 33 41 49
324 89 193 33 41 49
324 88 194 35 43 51
324 88 195 35 43 51
324 89 194 36 43 51
324 89 195 36 43 51
324 88 196 34 42 50
324 88 197 36 43 51
324 89 196 35 42 50
324 89 197 36 43 50
324 88 198 36 43 50
324 88 199 35 43 51
324 89 198 36 42 50
324 89 199 32 40 48
323 89 200 32 41 49
323 89 201 34 42 50
323 89 202 33 41 49
322 91 200 34 41 49
322 91 201 35 42 49
323 90 200 34 42 49
323 90 201 33 41 49
323 91 200 35 42 49
323 91 201 35 42 49
323 90 202 34 41 49
323 90 203 33 41 49
323 91 202 35 42 49
323 91 203 35 42 49
323 90 204 35 43 50
323 90 205 36 43 51
323 91 204 34 41 49
323 91 205 35 41 49
323 90 206 38 44 52
323 90 207 38 44 51
323 91 206 37 44 51
323 91 207 39 44 51
322 92 200 35 42 49
322 92 201 35 42 49
322 93 200 34 41 48
322 93 201 33 40 48
322 92 202 34 41 48
322 92 203 34 41 48
322 93 202 34 41 48
322 93 203 35 41 48
323 92 203 35 42 49
322 94 200 35 42 49
322 94 201 34 41 48
322 95 200 35 43 50
322 95 201 35 42 49
322 94 202 33 39 47
322 94 203 33 40 48
322 95 202 35 41 48
322 95 203 35 42 49
322 93 204 36 42 49
323 92 204 36 42 50
323 92 205 35 42 49
323 93 204 35 42 49
323 93 205 37 43 50
323 92 206 34 40 48
323 92 207 36 42 49
323 93 206 35 41 48
323 93 207 31 38 46
322 94 204 35 41 48
322 95 204 35 41 48
323 94 204 35 41 48
323 94 205 35 42 48
323 95 204 35 41 48
323 95 205 35 41 48
323 94 206 36 43 50
323 94 207 34 41 48
323 95 206 34 41 48
323 95 207 34 41 48
324 88 200 35 43 51
324 88 201 34 42 51
324 89 200 31 40 49
324 89 201 33 42 50
324 88 202 34 43 52
324 88 203 37 45 54
324 89 202 33 42 50
324 89 203 35 43 51
324 88 204 39 46 55
324 88 205 38 45 54
324 89 204 37 45 53
324 89 205 36 44 53
325 88 205 39 47 55
324 88 206 39 46 54
324 88 207 39 46 54
324 89 206 37 44 52
324 89 207 38 44 52
325 88 206 39 47 55
325 88 207 40 47 56
329 80 192 42 52 62
329 80 193 44 53 63
329 81 192 40 50 61
329 81 193 42 51 61
329 80 194 42 51 61
329 80 195 40 50 60
329 81 194 43 52 61
329 81 195 43 51 61
328 82 193 41 50 59
328 83 192 40 49 58
328 83 193 40 48 58
329 82 192 40 50 60
329 82 193 42 51 61
328 82 194 42 50 59
328 82 195 43 51 60
328 83 194 41 49 58
328 83 195 43 51 60
329 82 194 42 50 60
329 82 195 43 51 60
329 80 196 40 50 60
329 80 197 42 51 61
329 81 196 42 51 61
329 81 197 40 50 60
329 80 198 43 51 61
329 80 199 42 51 60
329 81 198 42 51 60
329 81 199 41 50 59
328 82 196 42 51 60
328 82 197 41 51 61
328 83 196 43 52 62
328 83 197 42 51 61
329 82 196 42 51 60
329 82 197 40 50 60
328 82 198 40 50 60
328 82 199 44 53 61
328 83 198 42 51 61
328 83 199 44 52 61
329 82 198 42 51 60
329 82 199 44 52 61
330 80 196 42 51 60
330 80 197 42 51 61
330 80 198 42 51 60
330 80 199 44 52 61
328 84 193 41 49 57
328 84 194 41 48 57
328 84 195 41 49 58
328 84 196 43 52 61
329 80 200 43 52 61
329 80 201 42 51 60
329 81 200 41 50 59
329 81 201 41 50 59
329 80 202 42 50 59
329 80 203 43 51 59
329 81 202 42 50 59
329 81 203 42 50 59
328 82 200 43 51 60
328 82 201 41 49 58
328 83 200 43 51 60
328 83 201 41 49 58
329 82 200 43 51 60
329 82 201 42 50 59
328 82 202 44 52 60
328 82 203 44 52 60
328 83 202 43 51 59
328 83 203 43 52 61
329 82 202 43 51 59
330 80 200 44 52 61
330 80 201 43 51 59
330 80 202 42 49 58
328 81 205 42 48 56
329 80 204 43 49 57
329 80 205 42 47 54
329 81 204 42 49 57
329 81 205 42 49 56
328 80 206 41 46 52
328 80 207 39 44 50
328 81 206 42 48 54
328 81 207 41 46 53
329 80 206 40 45 51
328 82 204 42 50 59
328 82 205 42 49 58
328 83 204 44 52 61
328 83 205 42 50 58
328 82 206 42 48 55
328 82 207 42 47 55
328 83 206 41 48 56
320 80 215 32 40 48
321 80 214 37 44 51
321 80 215 38 45 51
321 81 215 40 46 52
321 82 215 40 46 52
322 80 213 35 43 50
323 80 212 39 46 53
323 80 213 37 44 51
323 81 212 42 48 55
323 81 213 39 46 53
322 80 214 38 45 52
322 81 214 41 47 53
322 81 215 41 47 53
323 81 214 41 47 53
323 82 213 40 46 53
323 83 213 39 46 53
322 82 214 41 46 53
322 82 215 41 46 53
322 83 215 41 46 53
323 82 214 41 47 53
323 83 214 42 47 54
323 83 215 41 46 52
322 84 215 42 47 53
323 84 214 43 48 55
323 84 215 42 47 53
323 85 215 42 48 56
323 86 215 44 50 58
323 87 215 43 50 58
324 80 211 38 45 52
325 80 210 38 45 52
325 80 211 38 44 52
325 81 210 38 44 51
325 81 211 40 46 53
325 82 211 41 47 54
325 83 211 40 46 53
326 80 209 37 43 50
326 81 209 38 44 51
327 80 208 37 43 49
327 80 209 37 43 50
327 81 208 39 44 51
327 81 209 37 44 51
326 80 210 38 44 51
326 81 210 37 43 50
326 82 209 40 46 53
326 83 209 41 47 55
327 82 208 40 46 53
327 82 209 38 44 52
327 83 208 40 47 55
327 83 209 38 46 54
326 82 210 40 46 53
326 83 210 40 47 54
326 83 211 40 46 54
324 80 212 41 47 54
324 81 212 41 47 54
324 82 212 41 47 54
324 82 213 38 45 53
324 83 212 40 47 54
324 83 213 39 46 53
325 82 212 42 47 54
325 83 212 40 46 54
325 84 211 41 48 56
325 85 211 41 49 57
325 86 209 42 50 58
325 87 208 42 49 57
325 87 209 42 48 55
325 86 210 43 51 60
325 86 211 43 50 59
325 87 210 43 49 57
325 87 211 42 49 57
326 84 208 41 49 58
326 84 209 40 48 56
326 85 208 41 49 59
326 85 209 41 49 58
327 84 208 40 48 57
326 84 210 42 48 56
326 84 211 42 49 56
326 85 210 42 50 58
326 86 208 43 49 58
326 86 209 42 49 58
324 84 212 42 49 56
324 84 213 42 49 56
324 85 213 43 50 58
325 84 212 41 48 55
325 85 212 41 48 57
325 85 213 41 49 57
324 84 214 43 49 56
324 85 214 43 50 57
324 86 213 43 50 58
324 87 213 43 51 59
325 86 212 43 50 59
325 86 213 42 49 58
325 87 212 41 49 57
325 87 213 42 50 58
324 86 214 44 51 59
324 86 215 44 51 58
324 87 214 44 51 59
324 87 215 42 50 58
320 80 216 38 44 51
320 81 216 40 45 52
321 81 216 40 45 52
320 82 216 40 46 52
320 82 217 41 46 53
320 83 217 42 47 54
321 82 216 40 45 52
321 83 216 41 46 52
321 83 217 42 47 53
320 84 217 42 47 53
321 84 216 43 48 54
321 84 217 42 47 53
321 85 217 43 48 54
320 84 218 40 46 53
320 84 219 41 47 54
320 85 218 39 46 53
320 85 219 41 47 55
321 85 218 41 47 54
320 86 219 41 47 55
321 86 218 43 49 56
321 86 219 41 48 55
321 87 219 42 48 56
322 84 216 43 48 54
322 85 216 43 48 55
322 85 217 44 49 55
323 85 216 42 48 55
322 86 216 43 49 56
322 86 217 43 49 56
322 87 217 40 47 55
323 86 216 42 49 56
323 87 216 41 48 56
323 87 217 40 47 55
322 86 218 43 49 57
322 87 218 40 47 55
322 87 219 41 48 56
320 85 220 42 47 54
320 86 220 40 47 54
320 87 220 39 46 54
320 87 221 39 46 53
321 87 220 40 47 56
320 87 222 40 46 53
323 90 208 39 45 52
323 90 209 37 44 51
323 91 208 39 45 51
323 91 209 38 44 51
323 91 210 36 43 51
323 91 211 36 44 52
323 91 212 36 44 53
323 91 213 37 46 55
323 90 214 39 48 57
323 90 215 38 46 55
323 91 214 40 48 57
323 91 215 39 47 56
323 92 208 37 43 50
323 92 209 38 44 51
323 93 208 32 39 46
323 93 209 35 42 49
323 92 210 36 43 50
323 92 211 34 41 49
323 93 210 37 43 50
323 93 211 35 42 50
323 94 208 32 39 47
323 94 209 32 39 47
323 95 208 35 41 48
323 95 209 35 41 48
323 94 210 35 42 49
323 94 211 35 42 50
323 95 210 34 41 48
323 95 211 34 41 49
323 92 212 35 43 52
323 92 213 36 45 53
323 93 212 34 42 50
323 93 213 35 43 52
323 92 214 40 47 55
323 92 215 40 47 55
323 93 214 40 47 55
323 93 215 41 48 56
323 94 212 35 43 51
323 94 213 34 42 51
323 95 212 33 41 49
323 95 213 32 41 49
323 94 214 37 44 52
323 94 215 39 46 53
323 95 214 33 41 49
323 95 215 36 43 50
324 88 208 40 46 54
324 88 209 40 46 54
324 89 208 39 45 52
324 89 209 39 45 53
325 88 208 41 47 55
325 88 209 40 46 54
324 88 210 41 47 55
324 88 211 41 49 57
324 89 210 40 47 54
324 89 211 40 48 56
325 88 210 41 47 55
325 88 211 41 48 56
324 90 208 39 45 52
324 90 209 38 44 51
324 90 210 39 45 53
324 90 211 38 46 54
324 88 212 41 49 57
324 88 213 40 49 58
324 89 212 39 47 56
324 89 213 38 47 56
325 88 212 41 48 57
324 88 214 42 50 59
324 88 215 41 49 59
324 89 214 39 48 57
324 89 215 39 48 57
324 90 212 36 44 53
324 90 213 36 46 55
324 90 214 38 46 56
321 88 219 41 48 56
323 88 216 38 47 56
323 88 217 40 48 56
323 89 216 39 48 57
323 89 217 41 49 58
322 88 218 39 47 55
322 88 219 39 47 55
322 89 218 40 48 57
322 89 219 37 46 55
323 89 218 42 50 58
323 90 216 38 47 56
323 90 217 40 48 57
323 91 216 37 46 55
323 91 217 38 47 56
322 90 218 40 48 56
322 90 219 37 46 55
322 91 218 40 47 54
322 91 219 40 47 54
323 90 218 41 48 57
323 91 218 39 47 55
320 88 221 39 46 54
320 89 221 39 46 55
321 88 220 40 48 56
321 88 221 39 47 55
321 89 220 39 47 56
321 89 221 39 47 56
320 88 222 40 46 54
320 89 222 39 46 54
320 89 223 41 47 55
321 90 221 39 47 57
321 91 221 38 46 55
320 90 222 39 45 54
320 90 223 41 47 55
320 91 223 43 49 57
321 90 222 38 46 54
321 91 222 39 46 55
322 88 220 40 48 56
322 89 220 37 46 55
322 90 220 36 45 55
322 91 220 38 46 55
322 91 221 38 46 55
323 92 216 37 45 53
323 92 217 38 46 55
323 93 216 38 46 54
323 93 217 38 45 53
322 92 218 41 47 55
322 92 219 40 46 54
322 93 218 41 47 55
322 93 219 41 47 54
323 92 218 40 47 55
323 93 218 40 46 54
322 94 217 38 45 52
322 95 217 36 43 50
323 94 216 39 46 53
323 94 217 38 45 53
323 95 216 37 43 51
323 95 217 37 44 51
322 94 218 39 46 53
322 94 219 40 46 53
322 95 218 39 45 53
322 95 219 40 46 53
321 92 221 39 47 55
321 93 221 36 45 54
320 92 223 42 49 57
320 93 223 40 48 56
321 92 222 39 47 55
321 92 223 39 46 55
321 93 222 36 44 53
321 93 223 37 45 53
321 94 221 36 44 53
321 95 221 36 44 52
320 94 223 42 49 56
320 95 223 39 46 54
321 94 222 36 44 52
321 94 223 38 46 54
321 95 222 36 44 52
322 92 220 38 45 54
322 92 221 38 46 55
322 93 220 37 45 54
322 93 221 36 45 53
322 94 220 39 46 54
322 94 221 37 45 53
322 95 220 37 44 52
322 95 221 36 44 52
320 93 224 42 49 57
320 94 224 43 50 58
321 96 192 35 42 48
321 96 193 36 42 49
321 97 192 35 41 48
322 96 193 36 42 49
322 97 192 34 40 47
322 97 193 35 41 48
322 96 194 35 42 48
322 96 195 36 42 49
322 97 194 34 40 47
322 97 195 34 40 47
322 98 192 33 39 45
322 98 193 32 39 45
322 99 192 32 38 44
322 99 193 32 38 45
322 98 194 32 39 45
322 98 195 34 39 44
322 99 194 31 38 45
322 99 195 34 39 44
323 99 194 32 39 45
323 99 195 33 39 44
322 96 196 37 43 50
322 96 197 36 42 49
322 97 196 35 41 47
322 97 197 34 40 47
322 96 198 35 41 48
322 96 199 35 41 48
322 97 198 33 40 46
322 97 199 33 40 47
322 98 196 33 39 45
322 98 197 33 39 45
323 99 196 34 39 44
323 99 197 34 39 44
322 98 198 33 39 46
322 98 199 33 39 46
323 98 198 32 38 44
323 98 199 33 39 45
323 99 198 32 38 44
323 99 199 32 38 44
323 100 192 35 42 48
323 100 193 35 41 48
323 101 192 39 45 51
323 101 193 39 45 51
323 100 194 35 41 47
323 100 195 34 40 46
323 101 194 38 44 50
323 100 196 35 40 45
323 100 197 35 40 45
324 101 192 41 46 52
324 101 193 40 46 52
324 100 195 36 42 49
324 101 194 39 45 51
324 101 195 38 44 51
325 101 194 40 45 52
325 101 195 39 45 52
324 102 192 40 46 52
325 102 192 40 46 53
325 102 193 40 46 53
325 102 194 40 46 52
325 102 195 40 46 52
326 102 192 40 46 54
326 102 193 40 46 53
326 103 192 40 47 54
326 103 193 40 46 54
327 103 192 40 47 55
327 103 193 41 47 54
326 102 194 40 46 53
326 102 195 40 46 53
327 102 195 40 46 52
327 103 194 41 47 54
327 103 195 41 47 53
324 100 196 36 42 48
324 100 197 36 41 47
324 101 196 38 44 50
324 101 197 37 43 49
325 101 196 38 45 51
325 101 197 38 44 50
324 100 198 34 40 45
324 100 199 34 40 46
324 101 198 37 42 48
324 101 199 36 41 47
325 101 198 37 43 49
325 101 199 37 42 49
325 102 196 39 45 52
325 102 197 38 45 51
326 101 198 39 44 50
326 101 199 38 44 50
326 102 196 40 46 52
326 102 197 39 45 52
327 102 196 40 46 52
327 102 197 39 45 52
327 103 196 40 46 53
327 103 197 39 45 52
326 102 198 38 44 51
326 102 199 40 45 51
327 102 198 38 45 52
327 102 199 39 45 52
322 96 200 35 42 49
322 96 201 36 42 50
322 97 200 34 40 47
322 97 201 35 41 47
323 97 201 35 41 47
322 96 202 36 42 50
322 96 203 36 42 49
322 97 202 36 41 48
323 96 203 36 42 49
323 97 202 35 41 47
323 97 203 36 42 48
322 98 200 33 39 46
323 98 200 32 38 45
323 98 201 33 39 45
323 99 200 33 39 45
323 99 201 34 40 47
323 98 202 33 39 45
323 98 203 35 40 46
323 99 202 31 38 44
323 96 204 36 42 49
323 96 205 35 42 49
323 97 204 35 41 48
323 97 205 36 42 49
323 96 206 35 41 49
323 96 207 34 41 48
323 97 206 34 41 49
323 97 207 34 41 48
323 98 204 34 40 46
323 98 205 34 40 46
323 98 206 35 41 47
323 98 207 34 41 48
324 99 200 32 38 44
324 99 201 32 38 45
324 99 202 32 38 45
324 99 203 30 37 44
324 99 204 31 38 45
324 99 205 32 39 46
324 98 206 33 40 46
324 98 207 35 41 48
324 99 206 33 40 47
324 99 207 33 40 47
324 100 200 34 40 46
324 100 201 34 40 46
325 100 201 35 41 47
325 101 200 37 42 48
325 101 201 37 42 49
324 100 202 32 38 44
324 100 203 32 39 45
325 100 202 34 40 47
325 100 203 33 40 48
325 101 202 36 42 49
325 101 203 35 42 48
326 101 200 38 44 50
326 101 201 38 44 50
326 101 202 38 44 50
326 101 203 38 44 50
326 102 200 38 44 51
327 102 200 39 45 51
327 102 201 39 45 52
327 102 202 38 45 51
327 102 203 39 45 52
324 100 204 34 40 47
324 100 205 33 40 47
325 100 204 36 42 48
325 100 205 35 42 49
325 101 204 35 42 48
325 101 205 36 43 50
324 100 206 33 40 48
324 100 207 33 41 48
325 100 206 35 42 49
325 100 207 34 42 49
325 101 206 35 43 50
325 101 207 36 43 51
326 101 204 37 43 50
326 101 205 37 44 50
326 101 206 36 43 51
326 101 207 36 43 51
326 102 205 39 45 52
327 102 204 40 46 53
327 102 205 38 45 53
327 103 205 38 45 54
326 102 206 37 44 52
326 102 207 37 44 52
327 102 206 38 45 53
327 102 207 38 45 53
327 103 206 38 45 53
327 103 207 38 45 53
328 103 193 40 47 54
328 103 194 41 47 55
328 103 195 41 48 55
328 103 196 41 47 54
328 103 197 40 46 53
329 103 196 41 47 54
329 103 197 41 47 54
328 103 198 39 46 53
328 103 199 39 46 53
329 103 198 39 46 53
329 103 199 39 46 53
328 102 200 40 45 52
328 102 201 39 45 52
328 103 200 39 45 53
328 103 201 39 45 52
329 103 200 39 46 54
329 103 201 39 45 53
328 102 202 38 45 52
328 103 202 38 45 53
328 103 203 37 45 53
329 103 202 38 45 52
328 103 204 38 45 53
328 103 205 38 46 54
328 103 206 37 44 53
328 104 192 40 47 55
328 104 193 40 47 55
329 104 192 41 48 56
329 104 193 40 48 56
329 105 192 40 48 56
329 105 193 41 49 57
328 104 194 40 47 55
329 104 194 40 47 56
329 104 195 40 47 55
330 105 192 40 47 55
330 105 193 41 49 57
331 105 192 38 46 54
331 105 193 40 47 55
330 104 195 40 48 56
330 105 194 42 49 57
330 105 195 42 50 58
331 105 194 40 47 55
331 105 195 41 49 57
331 106 192 37 45 53
331 106 193 38 46 54
329 104 196 41 48 55
329 104 197 42 48 56
329 104 198 40 47 54
329 104 199 40 46 54
330 104 196 40 47 55
330 104 197 41 48 55
330 105 196 40 47 55
330 105 197 40 47 54
331 105 196 42 49 57
331 105 197 40 47 55
330 104 198 42 49 56
330 104 199 41 48 55
330 105 198 41 48 55
331 105 198 40 47 54
331 105 199 42 49 56
332 106 192 36 43 51
332 106 193 37 44 52
332 107 192 35 43 51
333 107 192 35 42 50
333 107 193 34 42 50
332 106 194 37 44 52
332 106 195 39 46 54
333 106 195 36 43 51
333 107 194 34 42 49
333 107 195 33 41 49
334 107 192 34 42 49
334 107 193 33 41 49
334 107 194 32 40 48
334 107 195 32 40 48
332 105 196 41 48 56
332 106 196 39 46 54
332 106 197 38 46 53
333 106 196 37 44 52
333 106 197 37 44 52
333 107 196 35 42 50
333 107 197 36 43 50
332 106 198 39 46 54
332 106 199 38 45 52
333 107 198 35 43 50
333 107 199 34 42 49
334 107 196 32 40 48
334 107 197 34 42 49
