ply
format ascii 1.0
element vertex 2032
property float x
property float y
property float z
property uchar red
property uchar green
property uchar blue
end_header
322 600 358 171 128 115
323 600 358 178 134 121
324 601 355 177 133 120
325 601 355 177 131 119
324 602 355 175 131 119
325 602 355 175 130 118
326 602 355 177 132 119
327 602 355 178 133 121
324 600 357 182 136 123
324 601 356 179 134 121
324 601 357 181 136 122
325 600 357 185 138 124
325 601 356 180 134 121
325 601 357 183 136 122
324 600 358 185 139 125
325 600 358 187 140 125
326 600 357 184 137 123
326 601 356 181 136 122
326 601 357 183 137 122
327 600 357 182 135 122
327 601 356 181 135 122
327 601 357 181 135 122
326 600 358 186 139 125
326 600 359 187 140 126
327 600 358 183 136 124
327 600 359 183 136 124
328 599 359 176 129 116
329 598 359 172 125 113
329 599 358 173 127 116
329 599 359 173 126 114
331 597 359 176 129 118
331 599 357 174 128 117
330 598 359 173 126 114
330 599 358 172 126 114
330 599 359 172 125 113
331 598 358 176 130 119
331 598 359 174 128 116
331 599 358 175 128 117
333 595 359 182 133 120
335 595 357 176 130 117
334 595 359 182 135 121
335 594 359 179 132 119
335 595 358 179 132 118
335 595 359 181 134 120
333 599 355 175 130 119
335 597 355 174 131 119
334 598 355 173 129 118
334 599 355 174 129 117
335 598 355 174 129 118
332 596 359 178 129 118
332 597 358 176 126 116
332 597 359 176 128 117
333 596 358 181 132 121
333 596 359 181 132 120
333 597 358 178 128 118
333 597 359 179 129 118
332 598 357 174 127 116
332 599 356 175 130 119
332 599 357 175 129 118
333 598 356 173 127 116
333 598 357 174 126 116
333 599 356 175 129 119
332 598 358 176 129 118
332 598 359 176 129 118
334 596 357 179 133 121
334 597 357 178 132 120
335 596 356 174 128 116
335 596 357 176 130 117
335 597 356 175 130 119
334 596 358 180 133 121
334 596 359 181 134 120
334 598 356 174 128 118
334 598 357 176 128 117
329 595 363 172 124 113
330 595 363 175 127 116
331 594 363 183 133 121
331 595 362 178 127 117
331 595 363 181 132 121
328 593 367 170 122 112
329 593 366 173 124 114
329 593 367 172 124 114
328 595 364 172 123 113
328 595 365 173 124 114
329 594 365 175 126 115
329 595 364 173 124 114
329 595 365 174 125 115
328 594 366 171 123 112
328 594 367 170 121 111
328 595 366 172 124 113
329 594 366 172 123 113
330 593 365 179 130 118
331 593 365 183 133 121
330 592 367 177 127 116
330 593 366 177 127 116
330 593 367 175 124 114
331 592 366 182 131 120
331 592 367 181 130 120
331 593 366 181 131 119
330 594 364 179 130 119
330 594 365 177 128 117
330 595 364 177 128 117
331 594 364 183 134 122
331 594 365 182 134 122
328 597 361 173 126 115
329 597 361 173 125 115
328 596 363 172 122 112
328 597 362 172 124 114
328 597 363 173 124 114
329 596 362 170 122 112
329 596 363 171 123 113
329 597 362 172 123 113
328 598 360 174 128 115
328 598 361 174 128 116
328 599 360 176 129 116
329 598 360 173 126 113
329 598 361 173 125 114
330 597 360 175 128 117
330 597 361 176 128 117
331 596 361 177 128 118
331 597 360 176 128 118
331 597 361 176 128 117
330 596 362 174 126 116
330 596 363 173 125 115
330 597 362 174 126 116
331 596 362 177 127 117
330 598 360 174 127 116
328 596 364 172 124 114
332 593 363 185 135 123
333 593 362 182 130 120
333 593 363 184 132 121
332 595 360 179 130 119
332 595 361 178 128 117
333 594 361 178 128 116
333 595 360 181 132 120
333 595 361 179 129 117
332 594 362 180 130 118
332 594 363 184 134 121
332 595 362 180 129 119
333 594 362 179 127 116
334 593 361 180 130 120
335 593 360 176 126 113
335 593 361 179 129 118
334 592 363 185 135 124
334 593 362 181 131 120
334 593 363 185 134 124
335 592 362 181 132 120
335 592 363 184 135 122
335 593 362 181 132 121
334 594 360 179 130 118
334 594 361 179 129 118
334 595 360 180 132 119
335 594 360 177 129 116
332 592 365 185 133 123
332 593 364 186 135 123
332 593 365 185 134 123
333 592 364 183 130 119
333 592 365 183 129 119
333 593 364 184 131 120
332 592 366 185 133 122
332 594 364 185 135 123
334 592 364 185 133 121
332 596 360 178 129 118
332 596 361 178 128 118
332 597 360 176 128 117
328 601 355 177 132 120
329 601 355 176 132 120
328 602 355 176 130 119
329 602 355 176 131 119
330 601 355 173 129 116
331 601 355 170 127 113
330 602 355 174 130 118
328 600 357 178 131 119
328 601 356 178 132 120
328 601 357 178 132 119
329 600 357 175 130 117
329 601 356 175 131 119
329 601 357 176 131 118
328 600 358 177 131 119
329 600 358 174 129 117
330 600 356 173 128 116
330 600 357 172 127 114
330 601 356 173 129 116
331 600 356 171 126 114
331 600 357 172 127 115
331 601 356 171 127 114
332 600 355 174 131 118
332 601 355 171 128 115
333 600 355 176 132 120
334 600 355 176 131 119
332 600 356 174 130 118
320 593 370 187 136 123
320 593 371 186 135 122
321 593 370 190 138 125
321 593 371 190 138 125
320 594 368 182 132 120
320 594 369 186 135 123
321 594 368 186 134 123
321 594 369 189 137 125
321 595 368 187 135 124
321 594 370 190 138 125
322 593 370 190 137 124
322 593 371 189 137 124
323 593 370 188 135 123
323 593 371 188 135 123
322 594 368 188 136 124
322 594 369 189 137 125
322 595 368 187 136 124
323 594 368 188 137 124
323 594 369 188 136 124
323 595 368 187 136 124
322 594 370 190 138 125
323 594 370 188 136 123
320 592 372 185 132 122
320 592 373 184 132 121
320 593 372 185 133 122
321 592 373 186 134 121
321 593 372 188 135 122
320 592 374 184 132 120
320 592 375 186 135 122
321 592 374 187 135 122
321 592 375 189 137 125
322 592 373 189 136 123
322 593 372 189 136 123
323 592 373 189 137 125
323 593 372 189 136 124
322 592 374 189 137 124
322 592 375 190 137 124
323 592 374 190 137 125
323 592 375 189 135 123
325 593 369 177 127 117
324 593 370 185 132 121
324 593 371 185 133 122
325 593 370 180 130 119
325 593 371 182 131 120
324 594 368 185 134 122
324 594 369 185 133 122
324 595 368 186 135 122
325 594 368 181 129 117
325 594 369 180 129 118
324 594 370 186 134 122
326 593 369 173 123 112
327 593 369 170 121 110
326 592 371 177 126 115
326 593 370 174 123 113
326 593 371 176 125 115
327 592 370 174 124 114
327 592 371 175 125 115
327 593 370 172 123 113
326 594 368 174 124 113
326 594 369 174 124 113
327 594 368 170 122 111
324 592 372 187 135 124
324 592 373 188 136 124
324 593 372 186 134 123
325 592 372 183 131 119
325 592 373 185 134 121
325 593 372 185 133 122
324 592 374 188 136 124
324 592 375 188 135 123
325 592 374 187 136 123
326 592 372 179 127 116
326 592 373 182 132 119
327 592 372 178 126 116
320 592 376 190 139 126
321 592 376 191 139 127
322 592 376 190 138 125
328 592 369 172 123 113
328 593 368 169 121 111
328 593 369 169 121 111
329 592 368 172 123 113
329 592 369 173 124 114
329 593 368 172 124 113
328 592 370 172 123 113
328 592 371 175 125 115
329 592 370 173 125 115
328 594 368 169 120 110
330 592 368 176 126 115
330 592 369 176 127 116
331 592 368 180 130 119
337 576 355 98 89 84
338 576 355 100 91 84
338 577 355 100 90 84
339 577 355 101 91 84
339 578 355 98 89 82
337 576 356 98 89 84
337 576 357 97 89 84
338 576 356 98 90 84
338 576 357 98 89 83
338 577 356 99 90 84
339 577 356 99 90 83
339 577 357 98 89 83
338 576 358 96 87 82
338 576 359 94 86 81
339 576 358 96 88 83
339 576 359 95 86 81
339 577 358 97 88 83
339 577 359 95 87 82
340 578 355 96 87 81
340 579 355 98 89 83
341 579 355 97 89 83
340 577 357 95 87 81
340 577 358 94 86 81
340 577 359 94 86 81
340 578 356 97 88 82
340 578 357 96 88 82
340 579 356 95 87 81
341 579 356 97 88 83
341 579 357 96 87 82
340 578 358 94 87 81
340 578 359 95 87 82
341 578 358 95 87 82
341 578 359 97 88 83
341 579 358 97 88 82
341 579 359 99 89 83
341 580 355 99 89 83
342 580 355 99 89 82
342 581 355 101 90 82
342 582 355 106 93 84
342 583 355 111 96 83
341 580 356 98 89 83
341 580 357 98 89 82
341 580 358 99 89 82
342 580 356 100 89 82
342 580 357 100 90 82
342 581 356 103 91 82
342 581 357 106 94 83
342 580 358 103 92 83
342 580 359 106 94 85
342 581 358 111 96 85
342 581 359 116 100 88
342 582 356 109 95 84
342 582 357 113 98 86
342 583 356 115 98 85
342 583 357 119 102 87
342 582 358 119 102 89
342 582 359 127 107 93
342 583 358 127 106 91
342 583 359 133 110 94
338 576 360 93 85 80
339 576 360 93 85 80
339 576 361 93 85 80
339 577 360 92 84 79
339 576 362 96 88 82
339 576 363 101 91 86
339 576 364 104 94 88
340 577 360 95 87 81
340 577 361 97 88 82
340 576 362 98 90 84
340 576 363 103 94 87
340 577 362 102 92 85
340 577 363 109 97 88
340 578 360 96 88 82
340 578 361 101 91 84
341 578 360 99 90 83
341 578 361 104 92 84
341 579 360 104 92 85
341 579 361 109 96 86
340 578 362 106 94 86
340 578 363 113 99 89
341 578 362 109 97 87
341 578 363 117 102 90
341 579 362 117 102 90
341 579 363 122 105 91
340 576 364 108 97 89
340 576 365 112 100 91
340 577 364 115 101 91
340 577 365 120 104 92
340 576 366 121 106 95
340 576 367 128 111 97
340 577 366 128 110 96
340 577 367 136 116 100
340 578 364 119 103 91
340 578 365 127 109 94
341 578 364 122 105 92
341 578 365 127 108 92
341 579 364 128 109 93
341 579 365 134 113 96
340 578 366 138 116 100
340 578 367 147 121 104
340 579 366 146 120 104
340 579 367 155 123 107
341 580 360 110 97 87
341 580 361 120 103 90
341 581 361 130 110 93
341 580 362 126 108 93
341 580 363 132 111 94
341 581 362 134 112 94
341 581 363 142 116 99
341 582 361 135 111 94
341 583 361 143 113 98
341 582 362 141 114 98
341 582 363 147 117 100
341 583 362 147 115 100
341 583 363 151 117 101
342 580 360 114 100 89
342 580 361 122 105 91
342 581 360 124 106 91
342 581 361 128 109 93
342 582 360 131 109 93
342 582 361 136 110 93
342 583 360 137 111 96
342 583 361 140 112 96
341 580 364 137 114 97
341 580 365 144 116 101
341 581 364 147 118 102
341 581 365 151 119 105
340 580 366 154 122 107
340 580 367 159 124 109
340 581 366 160 123 108
340 581 367 163 124 109
341 580 366 151 120 106
341 581 366 156 122 107
341 582 364 151 118 103
341 582 365 155 120 106
341 583 364 154 119 103
341 583 365 159 121 107
340 582 366 162 124 110
340 582 367 164 124 109
340 583 366 165 126 111
340 583 367 167 127 112
341 582 366 159 122 108
341 583 366 162 124 109
338 591 359 169 125 112
339 590 359 171 127 115
339 591 358 165 124 111
339 591 359 169 125 113
342 584 355 119 100 85
342 585 355 128 106 91
343 584 355 117 98 84
343 585 355 123 102 86
342 586 355 135 110 95
342 587 355 142 113 99
343 586 355 131 107 92
341 587 358 155 119 106
341 587 359 156 120 106
342 584 356 125 105 90
342 584 357 129 106 91
342 585 356 134 109 94
342 585 357 137 110 96
342 584 358 135 109 93
342 584 359 139 110 95
342 585 358 141 112 96
342 585 359 146 115 100
342 586 356 139 111 97
342 586 357 142 111 98
342 587 356 145 114 101
342 587 357 148 116 103
342 586 358 148 115 100
342 586 359 151 118 103
342 587 358 151 117 103
342 587 359 154 120 105
341 590 355 155 120 105
341 591 355 157 122 107
342 588 355 148 117 104
342 589 355 152 118 104
342 590 355 154 119 105
341 589 357 156 119 106
340 589 359 170 128 116
341 588 358 156 119 106
341 588 359 160 120 107
341 589 358 160 121 108
341 589 359 167 126 114
340 591 356 158 120 108
340 591 357 161 122 110
341 590 356 156 119 105
341 590 357 160 120 108
341 591 356 157 120 106
341 591 357 160 121 108
340 590 358 165 124 112
340 590 359 169 127 115
340 591 358 164 123 110
341 590 358 163 123 110
342 588 356 150 117 103
342 588 357 153 119 106
342 589 356 153 118 104
342 589 357 154 119 106
342 588 358 154 119 106
339 587 363 179 137 121
337 587 366 177 130 116
337 587 367 175 128 114
339 585 367 176 134 121
339 586 365 179 135 121
339 587 364 182 138 123
339 587 365 184 139 125
338 586 367 178 132 119
338 587 366 181 136 122
338 587 367 179 133 120
339 586 366 179 135 122
339 586 367 177 134 120
339 587 366 181 136 124
337 589 363 180 132 117
337 591 361 175 130 117
336 590 363 177 128 114
336 591 362 177 129 115
336 591 363 179 131 117
337 590 362 178 131 116
337 590 363 177 129 114
337 591 362 176 131 117
339 589 361 172 129 114
338 589 362 178 131 118
338 589 363 181 135 119
339 588 362 176 134 119
339 588 363 181 138 123
339 589 362 175 131 116
339 589 363 180 134 119
338 590 361 171 124 111
338 591 360 170 125 111
338 591 361 173 127 114
339 590 360 171 127 114
339 590 361 172 127 114
339 591 360 171 127 114
338 590 362 177 130 117
336 589 365 175 126 114
337 588 365 179 133 120
337 589 364 178 129 115
337 589 365 177 129 117
336 588 366 175 126 114
336 588 367 175 128 115
336 589 366 176 127 115
337 588 366 175 127 114
337 588 367 175 129 115
336 590 364 176 127 113
336 590 365 177 127 114
336 591 364 180 131 117
338 588 364 184 138 124
338 588 365 183 138 125
338 589 364 184 137 123
339 588 364 183 138 124
338 588 366 180 134 121
341 585 361 149 115 100
341 584 362 150 116 102
341 584 363 155 120 104
341 585 362 153 117 104
341 585 363 160 123 108
341 586 360 153 118 104
341 586 361 152 116 102
341 587 360 158 120 107
341 587 361 162 123 110
340 586 363 167 128 112
340 587 362 168 129 113
340 587 363 170 129 113
341 586 362 157 120 106
341 586 363 163 125 110
341 587 362 161 123 107
342 584 360 142 111 96
342 584 361 146 114 100
342 585 360 149 116 102
342 585 361 148 115 100
342 586 360 153 119 106
340 584 365 166 126 111
340 585 364 167 128 113
340 585 365 170 129 114
341 584 364 160 123 107
341 584 365 163 124 109
341 585 364 164 126 111
340 584 366 170 130 115
340 584 367 173 132 118
340 585 366 174 133 119
340 585 367 175 134 119
340 586 364 171 130 114
340 586 365 175 133 119
340 587 364 175 131 115
340 586 366 178 135 121
340 588 360 170 130 115
340 588 361 169 130 114
340 589 360 171 130 116
340 589 361 171 129 113
341 588 360 167 126 113
340 588 362 173 132 117
340 590 360 173 131 118
339 576 371 153 126 110
339 577 371 158 126 110
339 578 371 162 125 109
339 579 371 165 126 110
339 576 372 154 125 109
339 576 373 156 125 109
339 577 372 159 126 111
339 577 373 161 126 111
339 576 374 157 124 108
339 576 375 157 123 108
339 577 374 162 126 112
339 577 375 161 124 110
339 578 372 164 126 111
339 578 373 166 128 113
339 579 372 166 126 111
339 579 373 167 127 113
339 578 374 166 128 114
339 578 375 165 126 112
339 579 374 167 127 113
339 579 375 166 126 112
339 580 371 169 127 112
339 581 370 173 129 115
339 581 371 171 126 112
339 583 369 172 128 114
338 583 371 168 126 112
339 582 370 174 130 116
339 582 371 171 127 112
339 583 370 173 130 115
339 583 371 171 128 114
337 583 373 162 117 105
337 583 374 162 116 104
337 583 375 165 120 108
339 580 372 169 127 112
339 580 373 169 127 113
339 581 372 170 126 112
339 581 373 170 127 114
338 581 375 161 117 104
339 580 374 168 127 113
339 580 375 165 124 109
339 581 374 167 123 111
339 581 375 163 119 105
338 582 373 166 121 110
338 583 372 166 123 110
338 583 373 163 119 107
339 582 372 170 126 113
339 582 373 169 125 113
339 583 372 169 126 113
338 582 374 164 119 107
338 582 375 163 118 105
338 583 374 162 117 106
340 576 368 134 115 100
340 576 369 141 119 104
340 577 368 143 120 104
340 577 369 148 121 105
340 576 370 147 122 107
340 576 371 151 125 109
340 577 370 153 123 108
340 577 371 156 125 110
340 578 368 152 123 106
340 578 369 156 124 108
340 579 368 158 125 109
340 579 369 162 126 111
340 578 370 159 125 109
340 579 370 165 127 111
340 580 368 163 125 111
340 580 369 167 127 113
340 581 368 167 126 112
340 581 369 172 129 116
340 580 370 170 128 114
340 581 370 174 130 117
340 582 368 167 125 111
340 582 369 172 129 115
340 583 368 169 126 112
340 583 369 170 126 113
339 576 376 157 122 108
339 576 377 157 122 108
339 577 376 159 120 108
339 577 377 158 120 107
339 576 378 157 122 106
339 576 379 157 123 106
339 577 378 158 121 106
339 577 379 158 121 104
339 578 376 161 121 109
339 578 377 158 117 105
339 579 376 163 122 109
339 579 377 159 117 105
339 578 378 159 120 105
339 578 379 159 121 104
339 579 378 160 119 104
339 579 379 161 120 106
339 576 380 157 122 105
339 577 380 157 120 104
339 577 381 156 117 102
339 577 382 154 115 100
339 577 383 154 115 101
339 578 380 159 119 104
339 578 381 158 117 102
339 579 380 161 120 106
339 579 381 160 118 103
339 578 382 157 117 102
339 578 383 155 115 100
339 579 382 160 119 105
339 579 383 160 119 105
336 583 376 168 123 110
336 583 377 166 121 108
337 582 376 169 125 114
337 582 377 170 125 114
337 583 376 169 125 114
337 583 377 169 124 112
336 583 378 165 121 107
336 583 379 165 122 108
337 582 378 168 124 112
337 582 379 167 123 111
338 580 377 163 120 107
338 581 376 161 117 103
338 581 377 165 121 108
339 580 376 162 120 107
339 580 377 162 119 107
338 580 378 165 121 108
338 580 379 165 122 110
338 581 378 168 124 112
338 581 379 168 124 113
339 580 378 161 118 104
339 580 379 162 120 106
338 582 376 164 119 107
338 582 377 168 125 113
338 582 378 170 126 115
337 581 383 167 125 110
336 583 380 164 120 108
336 583 381 163 119 108
337 582 380 163 119 107
337 582 381 163 120 107
336 582 382 166 123 110
336 582 383 167 124 111
336 583 382 165 122 110
336 583 383 165 121 109
337 582 382 165 123 110
337 582 383 167 125 111
338 580 380 165 123 108
338 580 381 164 121 107
338 581 380 165 121 109
338 581 381 163 119 105
339 580 380 163 121 107
339 580 381 163 120 105
338 580 382 163 121 106
338 580 383 163 122 107
338 581 382 163 121 107
338 581 383 165 124 109
339 580 382 162 120 105
340 576 379 157 122 105
340 576 380 156 121 105
340 576 381 155 119 104
340 576 382 154 118 103
340 576 383 153 117 103
340 577 382 153 116 102
340 577 383 154 116 103
337 585 370 164 119 108
337 585 371 161 117 105
336 587 368 171 123 111
336 587 369 170 123 112
337 586 369 168 121 110
337 587 368 172 125 111
337 587 369 169 122 111
336 586 370 168 123 111
336 586 371 167 123 109
336 587 370 171 125 114
337 586 370 165 118 108
337 586 371 162 117 105
338 585 369 171 127 114
339 584 368 174 133 118
339 584 369 173 130 116
339 585 368 175 133 118
339 585 369 173 130 116
338 584 370 170 127 112
338 584 371 166 124 110
338 585 370 167 123 111
339 584 370 172 129 114
338 586 368 175 129 114
338 586 369 170 125 112
339 586 368 176 132 117
336 584 373 165 119 104
336 585 372 166 122 107
336 585 373 167 123 107
337 584 372 161 118 104
337 584 373 162 117 103
337 585 372 161 118 104
336 584 374 166 121 106
336 584 375 167 122 109
337 584 374 163 117 104
336 586 372 171 126 110
338 584 372 162 121 107
336 588 368 173 125 113
340 584 368 172 130 116
336 584 376 166 121 107
337 595 355 173 127 116
339 593 355 162 121 111
338 594 355 166 122 111
338 595 355 169 125 112
339 594 355 166 124 114
339 595 355 169 126 114
336 593 359 175 129 114
337 592 359 171 126 111
337 593 358 171 126 113
337 593 359 172 128 113
336 594 357 172 126 114
336 595 356 174 127 116
336 595 357 173 127 115
337 594 356 169 123 112
337 594 357 170 124 112
337 595 356 172 126 116
336 594 358 174 128 115
336 594 359 177 130 117
336 595 358 174 127 114
337 594 358 172 127 115
338 593 356 167 124 112
338 593 357 168 125 113
339 592 356 159 118 106
339 592 357 164 122 111
339 593 356 163 121 110
339 593 357 165 124 112
338 592 358 166 122 109
338 592 359 168 123 109
338 593 358 169 125 112
339 592 358 166 124 111
339 592 359 166 122 110
338 594 356 167 122 111
338 594 357 169 124 112
336 596 355 174 129 118
336 597 355 175 130 119
337 596 355 175 129 118
336 598 355 173 129 117
336 596 356 174 129 117
340 592 355 158 121 107
340 593 355 162 122 110
341 592 355 159 124 108
340 592 356 158 119 106
340 592 357 161 121 109
336 592 360 174 129 114
336 592 361 177 131 117
336 593 360 175 127 113
336 593 361 176 128 116
337 592 360 171 126 111
337 592 361 175 131 117
336 592 362 178 130 117
295 573 399 120 103 89
295 575 397 128 106 92
294 575 399 133 110 94
295 574 398 127 106 91
295 574 399 127 107 91
295 575 398 130 108 92
295 575 399 132 110 94
301 575 389 142 115 100
300 575 390 142 115 101
300 575 391 133 109 95
301 574 391 131 107 94
301 575 390 141 114 100
301 575 391 135 110 97
303 573 391 130 107 94
302 575 388 143 115 100
302 575 389 143 115 101
303 574 389 139 113 99
303 575 388 142 114 100
303 575 389 140 114 100
302 574 390 137 112 98
302 574 391 133 109 96
302 575 390 139 113 99
303 574 390 136 111 98
303 574 391 132 108 96
299 571 397 107 93 86
298 571 398 105 93 85
298 571 399 104 92 85
299 570 399 101 91 85
299 571 398 104 92 85
299 571 399 103 91 85
297 575 395 120 98 85
299 573 394 118 98 87
299 573 395 115 97 86
299 575 392 126 103 89
299 575 393 123 101 88
298 574 395 116 97 85
298 575 394 120 98 85
298 575 395 119 98 85
299 574 394 117 97 85
299 574 395 116 97 85
299 575 394 119 99 86
297 573 397 114 97 85
296 572 399 113 98 87
296 573 398 118 100 88
296 573 399 118 101 88
297 572 398 110 96 86
297 572 399 107 94 86
297 573 398 114 97 86
296 574 397 121 102 87
296 575 396 123 100 86
296 575 397 125 103 89
297 574 396 115 97 83
297 574 397 116 98 84
297 575 396 117 97 83
296 574 398 123 103 89
298 572 397 109 95 85
298 573 396 113 96 84
298 573 397 111 95 85
299 572 396 112 96 86
299 572 397 109 95 86
299 573 396 112 96 85
298 572 398 107 94 85
298 574 396 114 96 84
301 571 395 111 95 87
302 571 394 112 96 87
302 571 395 110 95 87
303 570 395 105 93 86
303 571 394 113 97 88
303 571 395 109 95 87
301 569 399 98 89 84
300 571 396 109 95 86
300 571 397 107 94 86
301 570 397 105 92 86
301 571 396 109 95 86
301 571 397 107 94 86
300 570 398 102 91 85
300 570 399 100 90 85
300 571 398 104 92 85
301 570 398 101 91 85
301 570 399 99 90 85
303 569 397 99 90 85
302 569 398 99 90 85
302 569 399 97 89 84
303 568 399 93 87 85
303 569 398 97 89 85
303 569 399 96 88 85
302 570 396 104 92 86
302 570 397 102 91 85
302 571 396 107 93 86
303 570 396 103 91 86
303 570 397 100 90 85
302 570 398 100 90 85
301 573 393 123 101 89
300 572 395 114 97 87
300 573 394 119 99 87
300 573 395 116 98 87
301 572 394 116 98 87
301 572 395 113 96 87
301 573 394 119 100 89
300 574 392 126 104 91
300 574 393 120 99 87
300 575 392 126 104 90
301 574 392 127 104 92
301 574 393 124 102 90
300 574 394 118 98 86
302 572 393 120 100 90
302 573 392 127 105 92
302 573 393 123 102 91
303 572 392 122 102 91
303 572 393 119 100 90
303 573 392 126 104 93
302 572 394 116 98 88
303 572 394 115 98 89
302 574 392 129 106 93
300 572 396 111 96 86
293 567 413 119 98 90
292 567 415 125 103 94
293 566 415 126 104 95
293 567 414 121 100 92
293 567 415 125 103 94
294 567 413 115 97 89
295 567 412 110 93 87
295 567 413 111 95 88
294 566 415 122 101 93
294 567 414 118 98 91
294 567 415 121 100 92
295 566 415 116 97 91
295 567 414 113 96 89
295 571 402 108 95 86
295 571 403 108 95 86
293 571 406 109 95 84
293 571 407 109 95 85
295 569 406 102 90 84
295 569 407 102 90 84
294 571 404 110 96 86
294 571 405 108 94 85
295 570 404 103 91 85
295 570 405 103 91 85
295 571 404 106 94 85
294 570 406 105 93 85
294 570 407 105 92 85
294 571 406 108 94 85
294 571 407 107 94 85
295 570 406 103 91 84
295 570 407 103 91 84
293 573 403 124 105 92
293 574 402 129 108 94
293 574 403 129 107 93
293 575 402 131 109 94
293 575 403 133 109 95
294 573 400 122 104 90
294 573 401 122 104 90
295 572 400 115 100 88
295 572 401 114 99 88
295 573 400 121 103 90
295 573 401 120 103 90
294 572 402 119 101 89
294 572 403 116 99 88
294 573 402 123 104 91
294 573 403 123 104 91
295 572 402 113 98 88
295 572 403 112 97 87
294 574 400 127 107 92
294 574 401 127 108 93
294 575 400 132 111 95
294 575 401 130 110 95
295 574 400 126 107 92
294 574 402 127 107 93
293 572 404 117 101 88
293 572 405 114 99 87
293 573 404 122 104 91
293 573 405 121 104 90
292 573 407 125 106 92
293 572 406 113 98 86
293 572 407 116 100 89
293 573 406 122 104 90
292 575 405 135 109 96
293 574 404 128 107 92
293 574 405 128 107 92
293 575 404 134 108 95
293 575 405 136 110 96
292 574 406 132 109 95
292 574 407 135 111 96
292 575 406 137 112 99
292 575 407 141 114 102
293 574 406 129 108 93
293 575 406 141 114 101
293 575 407 144 114 102
294 572 404 114 98 88
294 572 405 111 97 86
291 568 415 129 105 94
291 569 414 126 101 90
291 569 415 128 103 92
291 570 414 127 101 91
291 570 415 130 102 92
292 569 411 113 96 86
293 568 411 113 95 87
293 569 410 110 94 85
293 569 411 112 96 86
292 571 409 115 99 87
293 570 408 109 95 86
293 570 409 109 94 85
293 571 408 112 98 87
293 571 409 112 97 86
292 570 410 114 97 86
292 570 411 115 98 87
292 571 410 118 100 88
292 571 411 120 102 90
293 570 410 112 96 86
294 569 408 105 92 85
294 569 409 107 93 85
295 568 409 104 91 85
295 569 408 103 91 85
295 569 409 104 91 85
294 568 410 108 93 86
294 568 411 110 94 86
294 569 410 108 93 85
295 568 410 105 92 85
295 568 411 108 93 86
294 570 408 106 93 85
292 568 412 116 97 87
292 568 413 118 98 88
292 569 412 115 96 86
292 569 413 119 97 87
293 568 412 116 96 87
293 568 413 118 97 89
293 569 412 114 96 86
292 568 414 122 100 90
292 568 415 127 103 93
292 569 414 123 100 89
293 568 414 121 100 90
292 570 412 117 98 87
292 570 413 123 99 89
292 571 412 124 102 92
292 571 413 127 102 93
292 570 414 128 101 91
292 570 415 130 101 91
292 571 414 130 101 90
292 571 415 132 100 89
294 568 412 113 95 88
295 568 412 110 94 87
292 572 408 119 103 90
292 572 409 121 103 90
292 573 408 127 107 91
292 573 409 131 108 94
293 572 408 117 102 90
292 572 410 124 104 90
292 572 411 128 105 93
292 573 410 135 109 96
292 573 411 137 109 97
292 574 408 138 111 97
292 574 409 140 112 98
292 575 408 143 113 101
293 575 408 145 113 100
293 575 409 145 113 100
292 574 410 143 112 100
292 574 411 145 113 102
293 574 411 147 114 104
293 575 410 148 114 103
293 575 411 152 117 105
292 572 412 132 105 95
292 572 413 133 103 94
292 573 412 138 107 97
292 573 413 139 106 97
292 572 414 134 102 94
292 572 415 137 104 95
292 573 414 139 105 97
292 573 415 140 104 97
293 573 414 144 108 100
293 573 415 143 107 99
292 574 412 144 112 102
293 574 412 147 112 101
293 574 413 148 111 102
293 575 412 152 116 104
293 575 413 154 115 106
293 574 414 150 111 103
293 574 415 149 109 100
294 575 412 159 121 109
294 575 413 161 120 110
295 575 413 164 121 111
294 574 414 155 114 105
294 574 415 155 114 104
294 575 414 158 116 107
294 575 415 159 116 106
295 575 414 164 119 109
295 575 415 162 118 108
301 567 403 89 84 84
303 567 401 88 84 84
302 567 402 88 84 84
302 567 403 88 84 84
303 567 402 87 84 84
303 567 403 87 84 84
300 567 405 89 84 83
301 567 404 88 84 84
301 567 405 88 84 83
301 567 406 88 84 83
302 567 404 87 84 84
302 567 405 87 83 84
303 567 404 87 83 84
303 567 405 87 83 84
302 567 406 87 83 83
303 567 406 86 83 84
296 567 411 104 90 85
297 567 411 100 89 84
298 567 411 98 87 83
299 567 411 95 86 83
296 567 412 107 92 86
296 567 413 108 93 87
297 567 412 102 89 85
297 567 413 104 90 85
296 566 415 112 95 88
296 567 414 110 94 87
297 566 415 108 92 87
297 567 414 105 91 85
297 567 415 105 91 85
298 567 412 98 88 83
298 567 413 99 87 83
299 567 412 95 86 83
299 567 413 95 85 82
298 566 415 104 90 85
298 567 414 100 88 83
298 567 415 101 88 84
299 567 414 95 85 81
299 567 415 94 84 81
300 567 415 90 82 79
297 569 403 98 89 84
296 571 401 105 93 86
297 570 401 101 91 85
297 571 400 104 92 85
297 571 401 102 91 85
296 570 402 101 91 85
296 570 403 101 90 85
296 571 402 103 92 85
296 571 403 104 93 85
297 570 402 100 90 85
297 570 403 99 89 84
299 569 401 97 89 84
298 569 402 98 89 84
298 569 403 96 88 84
299 569 402 96 88 84
299 569 403 94 87 84
298 570 400 102 91 85
298 570 401 100 90 85
298 571 400 103 91 85
299 570 400 100 90 85
299 570 401 98 89 84
298 570 402 99 89 84
296 569 404 98 89 84
296 569 405 99 89 84
297 569 404 97 88 84
297 569 405 96 88 84
296 569 406 99 89 84
296 569 407 100 89 84
297 568 406 95 87 84
297 568 407 96 87 84
297 569 406 96 87 84
297 569 407 98 88 84
296 570 404 100 90 84
296 570 405 101 90 84
298 568 405 93 86 84
298 569 404 95 87 84
298 569 405 94 87 84
299 568 404 92 86 84
299 568 405 92 85 83
299 569 404 93 86 84
298 568 406 93 86 83
298 568 407 94 86 83
299 568 406 92 85 83
299 568 407 92 85 83
296 572 400 109 96 87
296 572 401 110 96 87
296 573 400 117 101 88
297 572 400 106 93 86
300 569 400 97 88 85
300 569 401 95 87 84
301 568 401 93 86 84
301 569 400 95 88 84
301 569 401 93 87 84
300 568 402 92 86 84
300 568 403 91 86 84
300 569 402 94 87 84
301 568 402 91 85 84
301 568 403 89 85 84
300 570 400 99 89 85
302 568 400 93 87 84
302 568 401 91 85 84
302 569 400 95 87 84
303 568 400 91 85 84
303 568 401 89 85 84
302 568 402 89 84 84
302 568 403 88 84 84
303 568 402 88 84 84
300 568 404 90 85 84
300 568 405 89 84 83
300 568 406 90 84 83
300 568 407 90 84 83
301 568 406 89 84 83
301 568 407 89 84 83
302 568 406 87 83 83
302 568 407 87 83 83
303 568 406 86 83 84
303 568 407 85 82 83
296 568 408 100 89 84
296 568 409 102 90 85
296 569 408 100 89 84
297 568 408 97 87 84
297 568 409 98 88 84
296 568 410 103 90 85
296 568 411 104 91 85
297 568 410 99 88 84
297 568 411 102 89 84
298 568 408 94 86 83
298 568 409 96 86 83
299 568 408 92 85 83
299 568 409 93 86 83
298 568 410 96 87 83
299 568 410 94 86 83
299 568 411 94 85 83
299 568 412 94 85 82
296 575 414 165 118 109
296 575 415 165 119 110
297 575 414 167 121 111
297 575 415 168 123 114
298 575 414 166 122 114
298 575 415 167 123 115
299 574 415 161 119 113
299 575 414 160 118 111
299 575 415 161 119 112
300 568 408 91 84 83
300 568 409 92 85 83
301 568 408 90 84 83
301 568 409 90 84 83
300 568 410 92 85 83
300 568 411 93 85 82
301 568 410 90 84 82
301 568 411 91 84 83
302 568 408 88 83 83
302 568 409 88 83 82
302 569 409 86 82 81
303 568 408 85 82 82
303 569 408 82 80 81
303 569 409 85 82 82
302 568 410 88 83 82
302 568 411 87 83 82
302 569 410 86 82 80
302 569 411 87 82 80
303 569 410 89 83 81
302 570 411 87 81 77
302 571 411 87 79 74
303 570 410 88 83 80
303 570 411 88 83 80
303 571 410 85 79 75
303 571 411 86 79 74
300 568 412 92 84 82
300 568 413 91 83 81
301 568 412 90 84 82
301 568 413 89 82 80
301 569 413 87 81 78
300 568 414 90 82 79
300 568 415 87 80 77
301 568 414 84 78 75
301 568 415 82 75 71
301 569 414 84 77 73
301 569 415 83 76 71
301 570 414 86 78 73
301 570 415 91 83 78
301 571 415 95 84 77
302 569 412 87 82 80
302 570 412 89 82 78
302 570 413 89 81 76
302 571 412 88 79 73
302 571 413 91 81 73
302 570 414 92 83 78
302 571 414 91 80 72
302 571 415 93 81 73
301 575 411 129 96 88
303 572 411 87 77 70
303 573 411 87 73 66
302 575 411 110 86 76
303 574 411 92 75 66
303 575 411 97 75 65
301 573 413 116 94 84
300 573 415 132 100 91
301 572 414 111 93 84
301 572 415 106 89 81
301 573 414 118 96 87
301 573 415 125 98 90
300 575 412 143 105 96
300 575 413 146 106 98
301 574 413 126 97 89
301 575 412 131 98 90
301 575 413 135 102 94
300 574 414 140 104 98
300 574 415 147 109 102
300 575 414 148 109 102
300 575 415 153 112 106
301 574 414 130 99 92
302 572 412 94 81 73
302 572 413 97 84 74
302 573 412 98 82 73
302 573 413 106 88 78
303 572 412 90 79 71
302 572 414 100 85 76
302 572 415 96 83 75
302 574 412 110 87 78
302 574 413 116 92 83
302 575 412 118 92 82
306 567 399 90 85 84
307 567 399 90 85 84
308 567 399 91 85 84
307 571 391 115 98 90
304 575 387 142 115 102
305 575 387 138 113 100
307 575 385 129 107 97
306 574 387 133 109 98
306 575 386 133 110 99
306 575 387 134 110 99
307 574 386 127 106 95
307 574 387 129 107 96
307 575 386 130 108 97
307 575 387 130 108 97
304 573 390 131 108 96
304 573 391 128 106 94
305 572 391 123 102 92
305 573 390 130 107 95
305 573 391 125 104 93
304 574 388 138 113 99
304 574 389 136 112 98
304 575 388 141 114 101
304 575 389 139 113 99
305 574 388 136 111 99
305 574 389 133 109 97
305 575 388 137 112 100
304 574 390 134 110 97
306 573 389 130 107 96
307 573 388 126 105 95
307 573 389 126 105 94
306 572 390 125 104 94
306 572 391 120 101 92
306 573 390 128 106 95
307 572 390 121 102 92
307 572 391 118 101 91
307 573 390 125 104 94
306 574 388 133 109 97
306 574 389 131 108 97
307 574 388 129 107 96
308 571 390 115 98 90
308 571 391 113 97 89
309 571 390 113 97 89
309 571 391 110 95 88
311 571 389 105 93 87
310 571 390 109 95 88
310 571 391 107 93 87
311 570 390 101 90 85
311 570 391 100 90 85
311 571 390 104 92 86
311 571 391 104 92 86
308 573 387 123 103 94
309 573 387 119 101 93
308 575 385 126 105 95
309 574 385 121 102 93
309 575 384 121 103 94
309 575 385 122 103 94
308 574 386 124 104 95
308 574 387 124 104 94
308 575 386 125 105 95
309 574 386 121 102 93
311 573 385 112 97 90
310 573 386 115 99 91
310 573 387 116 99 91
311 572 387 110 96 89
311 573 386 112 96 89
311 573 387 113 97 90
310 574 384 117 100 92
310 574 385 118 100 92
310 575 384 118 101 93
311 574 384 114 99 91
311 574 385 113 98 90
310 574 386 117 100 92
308 572 389 119 101 92
308 573 388 123 103 94
308 573 389 122 102 93
309 572 388 116 99 91
309 572 389 116 99 91
309 573 388 119 100 92
308 572 390 118 100 92
309 572 390 114 98 90
310 572 388 114 98 90
310 572 389 112 96 89
310 573 388 115 99 91
311 572 388 109 95 88
311 572 389 108 94 88
304 571 393 113 97 89
305 571 392 115 98 90
305 571 393 111 96 88
304 570 395 104 92 86
304 571 394 109 95 88
304 571 395 106 93 87
305 570 394 107 93 87
305 570 395 104 92 86
305 571 394 108 94 87
306 569 395 101 91 86
307 569 395 100 90 85
306 570 393 109 95 88
306 571 392 114 98 89
306 571 393 110 95 88
307 570 393 107 94 87
307 571 392 112 96 89
306 570 394 106 94 87
306 570 395 103 92 86
307 570 394 104 92 86
307 570 395 102 91 86
304 569 396 100 90 85
304 569 397 98 89 85
305 568 397 95 88 85
305 569 396 99 90 85
305 569 397 96 88 85
304 568 398 94 87 85
304 568 399 92 86 85
304 569 398 96 88 85
305 568 398 93 87 85
305 568 399 91 86 84
304 570 396 102 91 86
305 570 396 101 91 86
306 568 397 94 87 85
306 569 396 99 89 85
306 569 397 96 88 85
307 568 396 95 88 85
307 568 397 94 87 84
307 569 396 97 88 85
306 568 398 93 86 84
306 568 399 91 86 84
307 568 398 92 86 84
307 568 399 91 86 84
304 572 392 121 101 91
304 572 393 117 99 90
304 573 392 125 104 92
305 572 392 118 100 91
308 569 394 100 90 85
308 569 395 98 89 85
309 569 394 99 89 85
309 569 395 96 88 84
308 570 392 108 94 88
308 570 393 105 93 87
308 571 392 110 96 89
309 570 392 106 93 87
309 570 393 102 91 86
309 571 392 109 94 88
308 570 394 102 91 86
311 569 393 97 88 84
310 569 394 97 88 84
310 569 395 95 87 84
311 569 394 95 87 83
311 569 395 94 87 83
310 570 392 103 91 86
310 570 393 100 89 85
311 570 392 98 89 84
311 570 393 97 88 84
308 568 396 94 87 84
308 568 397 93 86 84
308 569 396 96 88 84
309 568 396 93 87 84
309 568 397 93 86 84
309 569 396 95 87 84
308 568 398 91 86 84
308 568 399 91 85 84
309 568 398 92 86 84
309 568 399 91 85 84
310 568 396 93 86 84
310 568 397 92 86 84
311 568 396 93 86 83
311 568 397 92 86 83
310 568 398 91 86 83
310 568 399 91 85 83
311 568 398 91 85 83
311 568 399 91 85 83
313 571 387 100 90 85
314 571 386 98 89 84
314 571 387 98 89 84
315 571 386 98 89 84
315 571 387 96 88 84
312 571 388 103 91 86
312 571 389 102 91 85
313 571 388 100 90 85
313 571 389 99 89 84
312 570 390 98 88 84
312 570 391 97 88 84
312 571 390 100 89 85
313 570 390 96 87 83
313 570 391 95 87 83
313 571 390 97 88 84
314 570 389 95 87 83
314 571 388 97 88 84
314 571 389 96 87 83
315 570 388 93 86 83
315 570 389 94 86 82
315 571 388 94 86 83
314 570 390 94 87 83
314 570 391 94 86 83
315 570 390 93 86 82
315 570 391 92 85 82
312 573 384 110 96 89
312 573 385 110 96 89
313 573 384 108 95 88
313 573 385 107 94 87
312 572 386 106 93 87
312 572 387 106 93 87
312 573 386 108 94 88
313 572 386 104 92 86
313 572 387 102 91 86
312 574 384 111 97 89
314 572 384 104 92 86
314 572 385 103 92 86
314 573 384 105 93 87
314 573 385 105 93 87
315 572 384 102 92 86
315 572 385 100 90 85
314 572 386 101 90 85
314 572 387 100 90 85
315 572 386 99 89 85
312 572 388 105 92 87
316 571 385 97 88 84
317 571 384 97 88 84
317 571 385 96 88 84
316 571 386 96 88 84
316 571 387 95 87 83
317 570 387 93 86 82
317 571 386 94 87 83
317 571 387 95 87 83
318 571 384 96 88 84
318 571 385 94 87 83
319 570 385 92 86 83
319 571 384 94 87 84
319 571 385 93 86 83
318 570 386 92 86 83
318 570 387 91 85 82
318 571 386 94 87 83
319 570 386 91 85 82
319 570 387 90 84 82
316 570 388 93 86 82
316 570 389 92 85 82
316 571 388 93 86 83
317 570 388 91 85 82
317 570 389 90 84 82
316 570 390 91 85 82
316 570 391 90 84 81
317 570 390 90 84 81
317 570 391 89 84 81
319 569 389 87 83 81
318 569 390 88 83 81
318 569 391 88 83 81
319 569 390 87 83 81
319 569 391 87 83 80
318 570 388 90 84 82
318 570 389 89 84 81
319 570 388 89 83 81
319 570 389 88 83 81
318 570 390 89 83 81
318 570 391 88 83 81
316 572 384 100 90 85
316 572 385 98 89 85
317 572 384 98 89 85
312 569 393 94 86 83
313 569 393 93 86 82
312 569 394 93 86 83
312 569 395 93 86 83
313 569 394 93 86 82
313 569 395 92 85 82
312 570 392 95 87 83
312 570 393 95 87 83
313 570 392 94 86 83
313 570 393 94 86 83
314 569 393 93 85 82
315 569 393 91 85 82
314 569 394 92 85 82
314 569 395 91 85 82
315 569 394 91 84 82
315 569 395 90 84 82
314 570 392 93 86 82
315 570 392 91 85 82
312 568 396 92 86 83
312 568 397 92 85 83
312 569 396 92 85 82
312 569 397 91 85 83
313 569 396 91 85 82
313 569 397 91 85 82
312 568 398 91 85 83
312 569 398 91 85 83
312 569 399 90 85 83
313 569 398 90 85 82
313 569 399 90 85 82
314 569 396 91 85 82
314 569 397 90 84 82
315 569 396 90 84 82
315 569 397 90 84 82
314 569 398 90 84 82
315 570 397 90 84 82
314 570 398 90 84 82
314 570 399 90 84 82
315 570 398 90 84 82
315 570 399 90 84 82
316 569 392 90 84 81
316 569 393 90 84 81
317 569 392 89 84 81
317 569 393 89 84 81
316 569 394 90 84 81
316 569 395 90 84 81
317 569 394 89 84 81
317 569 395 89 84 81
316 570 392 90 84 81
317 570 395 89 84 81
318 569 392 88 83 81
318 569 393 88 83 81
319 569 392 88 83 80
319 569 393 88 83 80
318 569 394 89 83 81
318 569 395 89 84 81
319 569 394 88 83 81
319 569 395 89 84 81
318 570 395 89 84 81
316 569 396 90 84 82
316 570 396 90 84 81
316 570 397 90 84 81
317 570 396 90 84 81
317 570 397 90 84 81
316 570 398 90 84 81
316 570 399 89 84 81
317 570 398 90 84 81
317 570 399 90 84 81
319 569 396 90 84 81
318 570 396 90 84 81
318 570 397 90 84 81
319 570 396 90 84 81
319 570 397 90 84 81
318 570 398 90 84 81
318 570 399 90 85 82
319 570 398 91 85 82
319 570 399 91 85 82
304 567 400 89 85 84
304 567 401 88 85 84
305 567 400 89 85 84
305 567 401 88 85 84
304 567 402 87 84 84
304 567 403 87 84 84
305 567 402 87 84 84
305 567 403 87 84 84
306 567 400 89 85 84
306 567 401 88 85 84
307 567 400 89 85 84
307 567 401 88 85 84
306 567 402 87 84 84
306 567 403 87 84 85
307 567 402 88 84 84
307 567 403 87 84 85
304 567 404 86 83 84
304 567 405 86 83 84
305 567 404 86 83 85
305 567 405 86 83 84
306 567 404 86 84 85
308 567 400 90 85 84
308 567 401 89 85 84
309 567 400 90 85 84
308 567 402 88 84 84
308 567 403 88 84 84
304 568 400 90 85 84
307 568 403 87 84 85
304 568 405 85 83 84
305 568 405 86 83 85
304 568 406 84 82 83
304 568 407 82 81 83
304 569 407 80 79 82
305 568 406 83 82 84
305 569 406 84 82 84
305 569 407 79 78 79
305 570 407 81 79 79
306 568 404 87 84 85
306 568 405 87 84 85
307 568 404 87 84 85
307 568 405 87 85 86
306 568 406 87 85 86
306 569 406 88 86 86
306 569 407 85 83 83
307 569 406 88 85 85
306 570 407 87 83 83
307 570 406 90 86 85
307 570 407 92 87 85
309 568 400 90 85 84
309 568 401 89 85 84
308 568 402 89 85 84
308 568 403 88 84 84
309 568 402 89 85 84
309 568 403 88 84 84
309 569 403 89 84 83
310 568 400 90 85 84
310 568 401 89 85 84
311 568 400 90 85 83
311 568 401 90 85 83
311 569 400 90 85 83
311 569 401 90 85 83
310 568 402 89 85 84
310 568 403 89 85 83
310 569 402 89 85 84
310 569 403 89 85 83
311 569 402 89 85 83
311 569 403 90 85 83
311 570 403 89 85 83
308 568 404 88 85 85
308 568 405 88 85 85
308 569 405 88 85 84
309 569 404 88 84 83
309 569 405 89 84 82
308 569 406 88 84 84
309 569 406 89 85 84
308 570 406 90 86 84
308 570 407 91 87 85
308 571 407 91 86 84
309 570 406 90 85 83
309 570 407 89 84 82
309 571 407 89 84 81
310 569 404 89 84 82
310 569 405 88 83 81
310 570 405 88 84 82
311 570 404 89 85 83
311 570 405 89 84 82
310 570 406 89 84 81
310 571 407 88 83 81
311 570 406 89 84 82
311 571 406 88 83 81
311 571 407 88 83 80
304 569 408 80 79 81
304 570 408 90 86 84
304 570 409 88 83 81
304 571 409 85 80 77
305 570 408 86 82 81
305 570 409 89 83 81
305 571 409 89 83 80
304 571 410 84 78 75
306 570 408 88 83 81
306 571 408 90 84 81
306 571 409 90 84 81
307 571 408 92 87 85
307 571 409 91 86 84
304 572 410 84 77 73
304 572 411 83 73 68
304 573 410 91 82 76
304 573 411 87 75 70
305 572 410 89 82 77
305 573 410 94 84 78
305 573 411 97 86 79
304 574 411 92 78 72
304 575 411 101 84 76
305 574 411 102 90 82
305 575 411 110 95 85
306 572 409 89 83 80
307 572 409 91 85 83
306 572 410 91 84 80
306 573 410 94 85 79
306 573 411 98 87 80
307 572 410 92 86 82
307 573 410 93 85 80
307 573 411 96 86 80
306 574 411 103 90 81
306 575 411 108 94 84
307 574 411 99 88 79
307 574 412 100 88 78
307 575 412 103 90 80
308 571 408 92 87 84
308 571 409 92 87 85
309 571 408 89 84 82
309 571 409 90 85 83
310 571 408 88 83 81
311 571 408 88 83 80
308 572 409 92 86 84
309 572 409 90 85 83
308 572 410 93 86 83
308 573 411 94 86 81
309 572 410 91 86 83
309 573 410 91 85 82
309 573 411 93 86 81
310 572 409 89 84 81
311 572 408 88 83 80
311 572 409 88 83 80
310 572 410 89 84 81
310 573 410 90 83 80
310 573 411 90 83 80
311 572 410 89 83 81
311 573 410 88 82 79
311 573 411 88 82 79
311 574 411 89 83 79
308 574 412 96 86 79
308 575 412 99 87 79
309 574 412 95 87 81
309 575 412 97 86 79
310 574 412 93 85 81
310 575 412 95 86 80
310 575 413 100 90 84
311 574 412 89 83 80
311 575 412 92 86 82
311 575 413 96 87 83
312 569 400 90 85 83
312 569 401 89 84 83
313 569 400 90 84 82
312 569 402 89 84 82
312 570 401 89 84 82
313 570 400 89 84 82
313 570 401 89 84 82
312 570 402 89 84 82
312 570 403 89 84 82
313 570 402 89 84 82
313 570 403 89 84 82
313 571 403 88 83 81
314 570 400 89 84 82
314 570 401 89 84 82
314 571 401 88 84 82
315 570 400 89 84 82
315 570 401 89 84 82
315 571 401 89 84 82
314 570 402 88 83 81
314 571 402 88 83 81
314 571 403 88 83 81
315 571 402 88 84 82
315 571 403 87 83 81
312 570 404 89 84 82
312 570 405 89 84 82
312 571 404 88 83 81
312 571 405 88 83 81
313 571 404 88 83 81
313 571 405 88 83 81
312 571 406 88 82 79
312 571 407 87 82 79
313 571 406 88 83 80
313 571 407 89 83 80
314 571 404 87 83 81
314 571 405 87 82 80
315 571 404 86 81 79
315 571 405 85 81 79
314 571 406 87 83 80
314 571 407 88 83 80
315 571 406 84 80 78
315 571 407 84 80 79
313 572 407 89 83 80
314 572 407 87 81 79
315 572 407 84 80 78
316 570 400 89 84 82
316 571 401 88 84 82
317 570 400 90 85 82
317 570 401 90 84 82
317 571 401 89 84 81
316 571 402 88 83 81
316 571 403 87 82 81
317 571 402 89 84 81
317 571 403 89 84 82
318 570 400 91 85 82
318 570 401 90 85 82
319 570 400 91 85 82
319 570 401 91 85 82
318 570 402 90 84 82
318 570 403 88 83 81
318 571 402 89 84 82
318 571 403 89 84 82
319 570 402 90 85 82
319 570 403 88 83 80
316 571 404 86 82 80
316 571 405 87 83 81
317 571 404 90 85 83
317 571 405 91 86 84
316 571 406 88 84 82
316 571 407 88 84 83
317 571 406 91 86 85
317 571 407 91 86 85
318 570 404 88 83 81
318 570 405 88 83 80
318 571 404 89 84 82
318 571 405 90 85 82
319 570 404 87 81 79
319 570 405 86 81 77
318 571 406 91 85 83
318 571 407 91 86 83
319 570 406 86 81 77
319 570 407 87 81 78
319 571 407 89 83 80
312 572 408 88 82 79
312 572 409 88 82 79
313 572 408 88 83 80
313 572 409 88 82 78
313 573 409 87 81 78
312 573 410 88 81 78
312 573 411 88 82 79
313 573 410 87 82 78
312 574 411 87 81 78
313 574 411 87 81 78
314 572 408 87 81 78
314 572 409 86 81 77
314 573 409 87 80 77
315 572 408 85 80 79
315 572 409 84 79 76
315 573 409 84 79 77
314 573 410 86 80 77
315 573 410 86 81 78
314 574 411 85 79 76
315 574 411 87 81 79
312 574 412 87 81 78
312 575 413 94 85 81
313 574 412 87 81 78
313 575 413 91 84 80
312 575 414 100 87 81
313 575 414 97 87 81
313 575 415 99 87 80
314 574 412 86 79 76
314 574 413 88 81 77
314 575 413 92 85 81
315 574 412 89 82 79
315 574 413 95 87 83
314 574 414 94 84 79
314 575 414 109 94 89
314 575 415 97 86 80
315 574 414 98 87 83
315 574 415 99 88 83
315 575 415 98 88 82
317 571 408 92 87 85
318 571 408 92 87 84
319 571 408 89 83 79
319 571 409 89 83 80
319 571 410 90 84 80
319 571 411 91 84 79
319 571 412 91 84 79
316 572 408 88 84 83
316 572 409 89 84 82
316 573 409 90 85 83
317 572 408 91 87 85
317 572 409 93 88 85
317 573 409 92 87 85
316 573 410 91 86 84
316 573 411 94 89 87
317 573 410 94 88 85
317 573 411 95 89 86
316 574 411 91 86 84
318 572 408 92 87 85
318 572 409 92 87 84
318 572 410 93 86 83
318 572 411 94 87 83
318 573 410 94 88 84
318 573 411 94 88 84
319 572 410 91 85 82
319 572 411 92 86 82
316 573 412 95 89 87
316 573 413 104 94 90
317 573 412 97 90 87
317 573 413 101 94 90
316 573 414 107 96 93
316 573 415 105 94 90
317 573 414 108 98 94
317 573 415 102 91 87
316 574 412 94 88 85
316 574 413 99 91 89
316 574 414 104 93 90
316 574 415 101 90 86
316 575 415 100 91 86
317 574 415 100 90 86
318 572 412 97 90 86
318 572 413 103 94 90
318 573 412 97 89 85
318 573 413 104 95 91
319 572 412 99 91 86
319 572 413 112 102 98
318 572 414 111 99 94
318 573 414 109 98 94
318 573 415 102 90 86
319 572 414 113 102 98
319 572 415 110 97 91
319 573 415 101 89 84
291 567 417 135 110 100
291 567 418 139 112 102
291 567 419 142 115 105
291 565 420 144 117 113
291 565 421 146 121 117
291 564 422 147 123 121
291 564 423 149 125 123
291 565 422 149 125 122
291 565 423 151 128 125
291 566 420 144 117 112
291 566 421 147 121 117
291 566 422 152 128 125
291 566 423 154 131 128
293 563 421 131 110 106
292 563 423 141 119 116
293 563 422 134 113 109
293 563 423 136 115 112
294 563 421 128 108 104
295 563 421 125 105 101
294 563 422 129 109 106
294 563 423 131 111 108
295 563 422 125 106 102
295 563 423 127 108 105
293 565 417 133 109 100
292 565 418 136 111 103
292 565 419 136 112 106
293 564 419 132 109 104
293 565 418 136 111 102
293 565 419 133 110 103
292 566 416 131 107 98
292 566 417 134 109 100
292 567 416 130 106 96
292 567 417 134 109 100
293 566 416 132 107 98
293 566 417 133 109 99
292 566 418 136 111 102
292 566 419 140 113 106
292 567 418 137 111 101
292 567 419 143 115 106
294 565 417 128 105 97
295 565 417 121 101 94
294 564 419 127 106 101
294 565 418 128 106 99
294 565 419 129 107 101
295 564 419 124 103 99
295 565 418 122 102 96
295 565 419 123 102 97
