ply
format ascii 1.0
element vertex 2020
property float x
property float y
property float z
property uchar red
property uchar green
property uchar blue
end_header
290 952 297 59 57 58
290 953 297 60 58 58
291 952 296 56 54 54
291 952 297 61 59 59
291 953 296 56 54 54
291 953 297 61 59 60
290 952 298 59 57 59
290 952 299 57 56 57
290 953 298 57 55 56
290 953 299 56 54 55
290 954 297 63 61 61
290 955 297 62 59 60
291 954 296 56 55 55
291 955 296 56 55 56
291 955 297 57 54 55
290 954 298 58 55 55
290 954 299 55 53 53
290 955 298 61 57 57
290 955 299 58 54 54
291 955 298 61 58 58
291 955 299 60 56 55
290 952 300 56 55 57
290 952 301 52 52 55
290 953 300 57 56 58
290 953 301 54 54 57
290 952 302 44 45 49
290 952 303 37 39 43
290 953 302 47 48 51
290 953 303 40 42 46
291 952 303 35 37 42
291 953 303 38 40 43
290 954 300 54 53 53
290 954 301 53 53 55
290 955 300 53 50 49
290 955 301 51 50 51
291 955 300 56 52 51
291 955 301 51 49 49
290 954 302 50 51 54
291 954 302 49 49 52
291 954 303 44 45 48
291 955 302 47 46 48
291 955 303 42 43 46
291 956 297 52 50 51
291 956 298 58 55 55
291 956 299 62 57 56
291 957 298 60 57 56
291 957 299 63 59 58
291 956 300 59 55 53
291 956 301 53 50 49
291 957 300 62 58 56
291 957 301 56 53 52
291 956 302 46 45 46
291 956 303 41 42 44
291 957 302 49 47 47
292 955 296 58 57 58
292 956 296 53 52 54
292 956 297 53 51 52
292 957 296 51 50 52
292 957 297 55 53 55
292 957 298 58 56 56
292 957 299 63 59 58
292 958 296 51 50 52
292 958 297 51 50 51
292 959 297 49 48 50
293 958 296 49 48 50
293 959 296 45 46 48
293 959 297 47 47 50
292 958 298 53 50 49
292 958 299 61 57 56
292 959 298 51 48 48
292 959 299 57 53 51
292 957 301 56 53 53
292 957 302 50 49 50
292 957 303 44 45 47
292 958 300 61 58 57
292 958 301 56 53 54
292 959 300 61 57 56
292 959 301 56 54 54
292 958 302 51 50 52
292 958 303 50 50 53
292 959 302 53 52 54
292 959 303 54 54 56
289 944 307 41 41 43
289 945 307 39 40 43
289 946 307 40 41 44
290 944 305 43 43 44
290 945 305 47 47 48
291 944 304 44 45 48
291 944 305 46 46 48
291 945 304 44 46 49
291 945 305 51 50 52
290 944 306 41 40 42
290 944 307 41 41 43
290 945 306 41 41 43
290 945 307 39 40 42
290 946 305 47 47 49
290 947 305 46 46 49
291 946 304 45 46 50
291 947 304 40 42 46
291 947 305 44 44 46
290 946 306 44 44 46
290 946 307 41 41 44
290 947 306 45 46 49
290 947 307 44 45 48
289 944 308 41 41 42
289 944 309 42 41 43
289 945 308 41 41 44
289 945 309 42 42 44
288 944 310 42 42 44
288 944 311 44 45 47
288 945 310 43 44 48
288 945 311 44 46 49
289 945 310 43 43 46
289 946 308 43 44 46
289 946 309 45 45 47
289 947 308 46 47 49
289 947 309 49 49 51
288 946 310 45 47 51
288 946 311 48 49 52
288 947 310 49 50 54
288 947 311 49 50 54
289 946 310 44 45 48
289 947 310 49 50 53
290 948 305 44 45 48
290 949 305 40 42 45
291 948 304 39 40 43
291 948 305 43 44 47
291 949 304 35 37 41
291 949 305 37 40 43
290 948 306 44 45 48
290 948 307 45 46 49
290 949 306 41 43 47
290 949 307 44 45 48
291 950 304 35 37 40
291 950 305 37 39 42
291 951 304 34 36 40
291 951 305 36 38 41
290 950 306 43 43 46
290 950 307 45 45 47
290 951 306 43 43 46
290 951 307 44 44 46
291 950 306 42 43 46
291 951 306 43 43 46
291 951 307 45 45 47
289 948 308 51 50 52
289 948 309 53 52 53
289 949 309 52 51 52
288 948 311 47 47 50
289 948 310 48 48 50
289 948 311 46 46 49
289 949 310 50 49 51
289 949 311 47 48 50
289 950 310 51 50 51
289 950 311 45 46 48
289 951 310 47 47 49
289 951 311 44 43 46
290 948 308 50 50 52
290 949 308 48 48 49
290 949 309 50 49 50
290 950 308 45 45 47
290 950 309 52 51 52
290 951 308 42 42 44
290 951 309 44 44 45
290 951 310 47 46 48
288 944 312 46 46 48
288 945 312 48 48 51
288 946 312 51 51 54
288 947 312 52 52 55
288 948 312 49 49 51
288 948 313 47 48 52
288 949 312 46 45 46
288 949 313 44 44 47
289 949 312 48 47 49
288 949 314 47 48 51
288 950 312 45 44 45
288 950 313 48 47 49
288 951 313 51 50 51
289 950 312 47 46 47
289 951 312 47 45 46
289 951 313 47 46 46
288 950 314 50 50 53
288 950 315 46 47 50
288 951 314 48 48 50
288 951 315 44 45 48
289 951 314 47 46 48
288 951 316 46 46 49
288 951 317 46 45 46
291 952 304 34 36 40
291 952 305 36 37 39
291 953 304 35 36 40
291 953 305 36 36 38
290 952 307 43 43 45
291 952 306 40 41 43
291 952 307 43 42 44
291 953 306 39 39 41
291 953 307 40 40 41
291 954 304 38 40 43
291 954 305 37 37 39
291 955 304 38 39 43
291 955 305 36 37 40
291 954 306 39 39 40
291 954 307 39 39 40
291 955 306 37 38 40
291 955 307 38 38 40
289 952 311 41 41 44
289 953 311 37 38 41
290 952 308 41 41 43
290 952 309 39 39 41
290 953 308 39 39 41
290 953 309 36 37 40
291 953 308 39 39 41
290 952 310 39 40 43
290 953 310 33 35 39
290 953 311 35 36 39
290 954 309 39 40 42
291 954 308 39 38 40
291 954 309 40 40 43
291 955 308 37 37 38
291 955 309 38 38 39
290 954 310 33 35 39
290 954 311 33 36 40
291 955 310 39 39 41
291 955 311 37 39 40
291 956 304 36 38 41
292 955 305 34 36 39
292 955 306 35 37 39
292 955 307 37 38 40
292 955 308 37 37 38
292 956 304 40 41 43
292 956 305 35 37 40
292 957 304 41 43 46
292 957 305 38 40 44
292 956 306 35 36 39
292 956 307 37 38 40
292 957 306 36 38 40
292 957 307 37 38 41
292 958 304 50 50 53
292 958 305 47 48 50
292 959 304 54 53 55
292 959 305 52 51 52
293 959 305 54 52 53
292 958 306 42 43 45
292 958 307 39 40 43
292 959 306 48 47 49
292 959 307 43 44 46
293 959 307 44 44 46
292 956 308 36 36 38
292 956 309 35 35 36
292 957 308 36 36 38
292 957 309 35 35 36
292 956 310 36 35 36
292 956 311 36 37 38
292 957 310 37 37 38
292 957 311 39 38 39
292 958 308 39 39 41
292 958 309 39 39 40
293 958 308 42 42 44
293 958 309 42 42 43
293 959 308 40 40 42
293 959 309 39 39 40
292 958 310 40 40 41
292 958 311 40 39 40
292 959 310 36 36 36
292 959 311 38 37 38
293 959 310 36 35 36
289 952 312 44 42 43
289 952 313 43 41 40
289 953 312 39 38 38
289 953 313 44 41 39
288 952 315 42 42 44
289 952 314 45 43 44
289 952 315 43 43 45
289 953 314 44 41 41
289 953 315 42 41 42
290 953 312 36 35 36
290 953 314 42 40 40
290 953 315 39 38 38
290 954 312 33 34 37
290 954 313 42 39 39
291 955 312 35 36 39
291 955 313 36 37 38
290 954 314 47 45 44
290 954 315 43 40 40
291 954 315 47 44 44
291 955 314 42 41 43
291 955 315 44 43 44
288 952 316 43 43 44
288 952 317 43 41 43
289 952 316 40 40 42
289 953 316 39 38 39
289 953 317 39 37 38
288 952 318 41 40 40
288 952 319 46 44 45
288 953 318 40 38 38
288 953 319 45 43 43
289 953 318 38 36 35
289 953 319 42 40 39
289 954 318 40 37 37
289 954 319 40 37 36
290 954 316 37 36 37
290 954 317 39 37 38
291 954 316 41 39 39
291 955 316 40 40 41
291 955 317 38 38 41
290 954 318 39 36 36
290 954 319 39 36 35
290 955 318 38 37 37
290 955 319 38 36 36
291 955 318 38 39 41
291 955 319 37 37 37
291 956 317 38 39 41
291 956 318 37 38 40
291 956 319 39 38 40
291 957 319 37 37 39
292 956 312 35 36 38
292 956 313 35 37 40
292 957 312 37 38 39
292 957 313 37 38 41
292 956 314 38 39 41
292 956 315 39 39 41
292 957 314 36 37 40
292 957 315 36 37 40
292 958 312 39 38 40
292 958 313 37 38 40
292 959 312 40 39 40
292 959 313 40 40 41
292 958 314 36 37 39
292 958 315 35 36 39
292 959 314 37 38 39
292 959 315 36 36 38
292 956 316 38 38 39
292 956 317 38 38 40
292 957 316 40 40 42
292 957 317 40 40 42
292 956 318 34 35 37
292 957 318 40 40 42
292 957 319 37 38 40
292 958 316 41 41 43
292 958 317 43 43 46
292 959 316 38 38 40
292 959 317 40 40 42
292 958 318 40 40 42
292 958 319 35 35 37
292 959 318 39 39 41
292 959 319 36 36 38
258 896 335 143 110 87
258 897 335 148 115 91
259 896 335 145 110 88
259 897 334 152 117 94
259 897 335 149 115 93
258 898 335 154 121 97
258 899 335 161 126 104
259 898 334 158 122 98
259 898 335 156 121 98
259 899 334 163 125 101
259 899 335 162 126 101
258 900 335 164 130 110
258 901 335 165 131 111
259 900 334 165 127 103
259 900 335 164 128 105
259 901 334 165 127 106
259 901 335 165 129 108
258 902 335 168 133 116
258 903 335 166 131 114
259 902 334 164 127 107
259 902 335 165 130 110
259 903 334 160 124 104
259 903 335 162 126 107
261 897 333 166 126 104
260 896 334 150 113 92
260 897 334 155 118 97
261 896 334 160 122 99
261 897 334 162 123 101
261 898 333 168 127 106
261 899 333 170 127 108
260 898 334 161 122 100
260 899 334 165 124 102
261 898 334 166 125 104
261 899 334 168 125 105
262 896 333 168 129 105
262 897 333 170 129 107
263 896 333 172 131 109
263 897 333 171 129 107
262 898 333 172 130 108
262 899 333 172 129 108
263 898 333 171 126 104
263 899 333 173 129 108
261 900 333 169 126 108
261 901 333 166 124 108
260 900 334 166 125 104
260 901 334 166 125 106
261 900 334 168 126 106
261 901 334 165 123 106
261 902 333 161 121 104
261 903 333 155 117 99
260 902 334 163 126 107
260 903 334 159 122 102
261 902 334 162 124 105
261 903 334 157 119 99
262 900 333 171 128 109
262 901 333 167 125 108
263 900 333 172 128 108
263 901 333 168 125 107
262 902 333 162 121 105
262 903 333 156 118 101
263 902 333 161 121 105
263 903 333 156 117 101
258 904 335 162 126 109
258 905 335 157 121 106
259 904 334 156 119 99
259 904 335 159 122 103
259 905 335 152 116 99
258 906 335 147 111 99
258 907 335 136 101 90
259 906 335 143 107 95
259 907 335 131 97 88
258 908 335 125 94 83
259 908 335 119 87 78
259 909 335 111 85 74
261 904 333 150 113 95
261 905 333 145 111 95
260 904 334 155 118 99
260 905 334 146 110 93
261 904 334 152 115 96
261 905 334 144 109 93
260 906 334 137 102 88
260 907 334 127 94 83
261 906 334 136 103 89
261 907 334 128 99 86
262 904 333 151 115 98
262 905 333 144 110 96
263 904 333 151 114 99
263 905 333 145 111 97
262 906 333 138 107 95
262 907 333 132 104 92
263 906 333 139 109 96
263 907 333 131 103 92
262 907 334 129 102 89
260 908 334 118 89 79
260 908 335 113 84 75
260 909 335 108 81 72
261 908 334 119 93 82
261 909 334 114 91 80
261 909 335 107 83 74
260 910 335 104 79 70
261 910 335 103 81 72
262 908 333 123 98 85
263 908 333 124 98 86
262 908 334 122 98 85
262 909 334 115 93 80
262 909 335 111 90 79
263 909 334 115 95 82
262 910 335 107 87 79
263 910 334 109 90 80
263 910 335 107 88 79
263 911 335 103 84 76
267 899 331 180 136 116
264 896 333 177 134 114
264 897 332 179 136 117
264 897 333 177 134 115
265 896 332 179 135 116
265 897 332 179 136 117
264 898 332 177 134 114
264 898 333 175 131 111
264 899 332 176 133 113
264 899 333 175 132 111
265 898 332 180 136 116
265 899 332 179 137 117
266 896 332 180 134 115
266 897 332 181 136 116
267 896 332 181 135 114
267 897 332 181 136 116
266 898 332 181 138 118
266 899 332 180 137 117
267 898 332 182 137 116
267 899 332 181 137 117
267 900 331 177 134 116
267 901 331 174 131 115
266 902 331 165 125 109
266 903 331 160 121 105
267 902 331 168 127 111
267 903 331 159 122 104
264 900 332 174 131 111
264 900 333 173 130 109
264 901 332 170 127 108
264 901 333 168 124 107
265 900 332 176 134 115
265 901 332 172 130 113
264 902 332 163 122 105
264 902 333 162 121 105
264 903 332 156 118 101
264 903 333 156 118 99
265 902 332 165 124 107
265 903 332 157 119 101
266 900 332 178 136 118
266 901 332 173 131 115
267 900 332 178 134 116
266 902 332 167 125 109
266 903 332 158 120 103
268 897 331 181 135 115
269 896 331 180 133 112
269 897 331 181 135 114
268 898 331 181 135 116
268 899 331 180 136 117
269 898 331 180 135 112
269 899 331 178 134 112
270 896 331 177 131 108
270 897 331 179 134 111
271 896 330 176 132 108
271 896 331 176 131 105
271 897 330 177 131 108
271 897 331 177 131 106
270 898 331 177 132 108
270 899 330 176 132 107
270 899 331 177 132 108
271 898 330 176 130 107
271 899 330 176 131 107
268 896 332 179 133 112
268 897 332 181 135 115
268 898 332 182 136 116
268 900 331 178 135 117
268 901 331 176 134 117
269 900 331 177 135 114
269 901 331 176 134 115
268 902 331 169 129 112
268 903 331 159 121 104
269 902 331 170 129 112
269 903 331 161 121 105
270 900 330 176 133 111
270 900 331 176 133 110
270 901 330 176 132 112
270 901 331 175 132 111
271 900 330 176 132 110
271 901 330 176 131 111
270 902 330 170 127 109
270 902 331 170 128 109
270 903 330 163 122 104
271 902 330 171 126 108
271 903 330 164 122 104
266 904 331 155 118 102
266 905 331 145 111 96
267 904 331 153 117 101
267 905 331 145 111 96
267 906 331 134 103 87
264 904 332 153 118 101
264 904 333 151 116 98
264 905 332 146 112 98
264 905 333 145 111 97
265 904 332 152 117 101
265 905 332 145 111 97
264 906 332 136 106 92
264 906 333 138 106 94
264 907 333 128 101 87
265 906 332 135 105 90
265 907 332 124 98 81
266 904 332 154 117 101
266 905 332 145 110 95
266 906 332 134 104 88
266 907 332 124 98 78
267 906 332 133 103 86
267 907 332 125 99 78
264 908 333 121 96 83
264 909 333 117 95 83
265 908 332 119 95 77
265 908 333 119 96 80
265 909 333 116 93 80
264 909 334 113 93 81
265 909 334 112 90 80
264 910 334 108 87 79
264 910 335 106 87 79
264 911 335 101 81 74
265 910 334 109 87 80
265 911 334 103 82 77
265 911 335 100 79 74
266 908 332 120 96 77
266 908 333 121 98 81
266 909 333 117 93 79
267 908 332 122 99 79
267 908 333 122 100 82
267 909 333 122 98 83
266 910 333 108 81 70
267 910 333 109 84 73
267 911 333 105 83 74
266 910 334 107 82 74
266 911 334 101 79 74
267 911 334 100 77 70
268 904 331 153 117 102
268 905 331 145 113 99
269 904 331 154 118 103
269 905 331 145 112 98
268 906 331 133 104 87
268 907 331 125 99 79
269 906 331 135 105 90
269 907 331 128 101 83
270 904 330 157 119 104
270 905 330 147 114 99
271 904 330 159 120 104
271 905 330 151 116 99
270 906 330 138 107 92
270 906 331 134 105 89
270 907 330 134 106 90
270 907 331 131 104 87
271 906 330 141 109 92
271 907 330 136 108 91
268 907 332 122 97 75
268 908 331 122 96 74
269 908 331 123 99 78
270 908 331 124 102 81
270 909 331 125 105 87
271 908 330 129 104 86
271 908 331 124 101 81
271 909 330 128 106 91
271 909 331 125 105 88
270 910 331 124 105 92
271 910 331 124 105 94
271 911 331 118 99 91
268 908 332 122 99 77
268 909 332 124 101 83
268 909 333 121 97 81
269 908 332 124 101 81
269 909 332 126 105 87
268 910 333 115 91 77
268 911 333 109 90 79
269 910 332 122 101 85
269 910 333 114 92 74
269 911 332 111 91 76
269 911 333 110 91 76
270 909 332 127 107 91
270 910 332 122 102 90
270 911 332 112 91 80
271 911 332 112 89 83
257 896 337 144 108 88
257 897 337 149 115 95
256 896 338 149 111 96
256 896 339 149 110 96
256 897 338 153 117 101
256 897 339 153 116 101
257 896 338 148 112 95
257 897 338 152 118 99
257 898 336 155 122 102
257 898 337 155 121 101
257 899 336 160 127 108
257 899 337 161 126 107
256 898 338 155 120 102
256 898 339 156 120 104
256 899 338 159 123 105
256 899 339 159 124 107
258 896 336 142 108 86
258 897 336 148 115 94
258 898 336 155 122 101
258 899 336 161 127 108
256 896 340 151 111 96
256 896 341 153 115 98
256 897 340 154 118 103
256 897 341 155 119 104
256 898 340 156 121 106
256 898 341 157 122 107
256 899 340 158 123 107
257 900 336 164 131 113
257 900 337 162 127 108
257 901 336 165 132 114
257 901 337 163 127 109
256 900 338 162 125 106
256 900 339 162 126 109
256 901 338 162 125 105
256 901 339 164 128 110
257 902 336 168 133 117
257 902 337 165 130 112
257 903 336 168 134 119
257 903 337 166 130 113
256 902 338 164 128 107
256 902 339 164 127 108
256 903 338 164 128 109
256 903 339 164 125 107
258 900 336 164 131 112
258 901 336 165 131 114
258 902 336 168 133 118
258 903 336 168 134 119
256 900 340 162 126 109
256 901 340 165 129 111
256 904 337 165 129 112
256 905 337 163 125 110
257 904 336 168 133 119
257 904 337 165 129 112
257 905 336 161 125 111
257 905 337 162 125 109
256 904 338 164 126 109
256 904 339 165 125 110
256 905 338 162 123 108
256 905 339 163 123 107
256 906 337 158 120 103
256 907 337 151 113 95
257 906 336 153 116 102
257 906 337 156 118 103
257 907 336 142 106 92
257 907 337 148 111 96
256 906 338 158 120 101
256 906 339 161 122 103
256 907 338 153 114 95
258 904 336 167 132 119
258 905 336 158 122 109
258 906 336 151 115 102
256 908 337 140 104 88
256 909 337 127 96 83
257 908 336 130 97 83
257 908 337 132 99 82
257 909 336 120 92 78
257 909 337 123 94 77
256 908 338 143 105 89
256 909 338 130 95 81
256 909 339 132 95 78
257 910 337 120 95 81
257 911 337 120 98 85
256 910 338 123 92 79
256 910 339 129 95 79
256 911 339 125 94 78
257 910 338 121 94 79
257 911 338 119 94 80
257 911 339 120 90 76
258 908 336 125 95 83
258 909 336 118 92 79
258 910 336 114 90 77
258 910 337 116 95 82
258 911 337 120 100 86
259 910 336 109 86 74
259 911 337 111 90 77
258 911 338 122 102 89
256 911 340 129 97 80
260 910 336 103 80 69
260 911 336 103 82 70
260 911 337 104 83 71
261 910 336 100 78 68
261 911 336 99 79 69
261 911 337 96 75 66
262 911 336 99 80 71
263 911 336 99 79 72
264 912 335 95 74 68
265 912 335 89 68 63
266 912 334 86 64 61
266 912 335 79 60 57
266 913 335 66 53 52
267 912 334 78 61 56
267 912 335 71 56 55
267 913 334 66 58 57
267 913 335 62 52 53
267 914 335 57 52 52
271 912 331 104 83 81
271 913 331 93 76 73
268 912 333 106 93 86
269 912 333 111 101 95
269 913 333 101 95 93
268 912 334 88 76 70
268 913 334 71 64 61
269 913 334 84 78 76
268 914 335 58 53 53
269 914 334 70 66 65
269 914 335 60 56 54
269 915 335 65 60 56
270 912 332 110 97 89
270 912 333 114 106 103
270 913 333 105 99 98
271 912 332 103 85 80
271 913 332 101 90 87
270 914 333 95 90 90
271 914 332 90 82 77
271 914 333 93 86 82
271 915 333 93 83 76
270 914 334 78 73 71
270 915 334 78 72 69
270 915 335 79 72 67
271 914 334 86 80 76
271 915 334 91 82 76
271 915 335 92 82 76
271 916 335 99 88 79
257 912 339 118 91 77
259 912 337 111 91 78
258 912 338 121 100 87
258 912 339 118 95 82
259 912 338 118 99 86
259 912 339 119 99 87
259 913 339 114 93 80
256 912 340 129 99 81
256 912 341 128 101 81
256 913 341 124 99 79
257 912 340 120 92 77
257 913 340 116 89 76
257 913 341 117 90 74
256 914 341 117 94 75
257 914 341 109 85 67
257 915 341 102 81 60
256 914 342 117 95 74
256 915 342 111 91 70
257 915 342 105 85 65
258 913 340 110 85 72
259 913 340 107 85 71
258 914 341 104 81 65
258 915 341 98 78 58
259 914 340 102 80 66
259 914 341 98 77 62
259 915 341 94 76 59
258 915 342 99 80 59
259 915 342 96 78 58
256 916 342 108 89 70
256 916 343 110 91 73
256 917 343 112 95 79
257 916 342 104 86 68
257 916 343 105 87 70
257 917 343 105 89 74
257 918 343 109 93 79
258 916 342 100 83 66
258 917 343 99 84 71
259 916 342 96 81 64
259 917 342 95 81 67
259 917 343 95 81 68
258 918 343 101 87 75
259 918 343 95 82 71
260 912 337 106 85 72
261 912 337 95 76 67
260 912 338 109 89 77
260 913 338 109 92 81
260 913 339 109 91 79
261 912 338 97 80 69
261 913 338 93 77 68
261 913 339 93 79 70
261 914 339 88 74 65
262 912 336 88 70 62
262 912 337 89 70 63
262 913 337 87 70 64
263 912 336 90 71 65
263 912 337 88 70 64
263 913 337 84 66 61
262 913 338 82 67 61
263 913 338 77 60 56
262 914 339 78 65 59
263 914 338 74 58 55
263 914 339 71 59 56
263 915 339 72 63 57
260 914 340 98 79 65
260 915 341 91 74 58
261 914 340 88 74 63
261 915 340 84 71 59
261 915 341 88 73 58
262 915 340 82 69 58
262 915 341 85 72 59
263 915 340 80 68 59
261 916 341 89 74 59
260 916 342 93 79 64
260 917 342 94 80 67
260 917 343 92 79 67
261 916 342 91 77 63
261 917 342 91 77 65
260 918 343 88 76 66
260 919 343 94 83 74
261 918 342 86 73 62
261 918 343 82 71 62
261 919 343 87 77 69
262 916 341 87 73 60
263 916 340 84 72 60
263 916 341 86 73 61
263 917 341 86 74 63
262 917 342 88 74 62
263 917 342 84 72 60
262 918 342 84 72 62
262 918 343 79 69 62
262 919 343 81 73 67
263 918 342 78 67 61
263 919 343 75 67 63
256 918 344 117 100 85
256 919 344 126 108 92
256 919 345 136 117 99
257 918 344 113 97 83
257 919 344 123 106 91
257 919 345 135 116 99
258 918 344 105 91 80
258 919 344 120 104 91
259 919 344 113 99 87
260 919 344 109 96 86
261 919 344 103 92 83
262 920 343 109 97 88
262 921 343 132 115 100
263 920 343 103 90 81
263 921 343 127 110 96
262 922 343 147 124 104
262 923 343 157 129 103
263 922 343 144 122 103
263 923 343 155 128 103
262 924 343 168 133 106
262 925 343 175 135 108
263 924 343 165 132 104
263 925 343 172 134 106
262 926 343 181 138 111
262 927 343 183 139 113
263 926 343 180 136 110
263 927 343 183 138 113
256 920 345 148 125 105
257 920 345 146 124 104
257 921 345 155 130 108
256 921 346 157 131 109
257 921 346 158 132 109
257 922 345 163 134 111
257 923 345 171 136 115
256 922 346 165 136 115
256 923 346 172 136 116
257 922 346 164 135 112
257 923 346 171 135 115
258 920 344 136 116 99
258 920 345 143 122 103
258 921 345 153 129 107
259 920 344 134 114 97
259 920 345 141 119 100
259 921 344 145 122 100
259 921 345 150 125 103
258 922 345 162 132 109
258 923 345 170 135 113
259 922 345 159 129 104
259 923 345 169 134 110
257 924 345 178 138 117
257 925 345 184 140 118
256 924 346 181 140 120
256 925 346 187 145 123
257 924 346 179 138 117
257 925 346 184 141 119
256 927 345 190 147 127
257 926 345 188 145 123
257 927 345 188 145 125
256 926 346 190 149 126
256 927 346 191 149 127
257 926 346 189 146 123
258 924 345 178 139 119
258 925 345 182 140 119
259 924 345 176 137 115
259 925 345 182 140 119
258 926 345 186 143 122
258 927 345 187 143 124
259 926 345 186 143 122
259 927 344 187 143 123
259 927 345 187 143 124
260 920 344 129 111 97
260 921 344 145 121 100
261 920 344 121 105 93
261 921 344 139 118 101
260 922 344 155 126 101
260 922 345 159 128 103
260 923 344 167 133 108
260 923 345 168 133 109
261 922 344 152 125 102
261 923 344 163 130 105
262 920 344 120 106 95
262 921 344 136 117 102
262 922 344 149 125 104
262 923 344 159 129 103
260 924 344 175 137 112
260 924 345 175 136 113
260 925 344 179 137 113
261 924 344 172 134 108
261 925 344 177 136 110
260 926 344 184 141 117
260 927 344 185 142 121
261 926 344 181 139 112
261 927 344 185 141 118
262 924 344 169 133 106
262 925 344 175 135 108
262 926 344 180 137 109
262 927 344 183 139 114
264 912 336 90 72 66
264 912 337 86 68 63
264 913 336 89 73 70
264 913 337 84 67 64
265 912 336 86 70 65
265 913 336 82 68 65
264 914 337 80 64 63
265 914 337 75 62 60
264 914 338 69 56 53
264 915 338 65 54 48
264 915 339 69 59 54
265 914 338 72 59 56
265 915 338 69 58 52
265 915 339 72 61 52
266 913 336 69 56 55
266 914 336 66 59 57
266 914 337 70 63 60
266 915 337 70 62 59
267 914 336 52 48 47
267 914 337 64 59 58
267 915 336 53 47 44
267 915 337 75 68 64
266 915 338 73 63 56
267 915 338 76 67 60
264 915 340 76 66 59
265 916 339 76 65 55
266 916 339 83 72 62
267 916 338 84 74 66
267 916 339 93 81 72
267 917 339 99 87 78
264 916 340 78 68 59
264 916 341 84 72 61
264 917 341 85 73 63
265 916 340 83 72 62
265 917 340 88 76 67
265 917 341 85 73 63
264 917 342 82 70 59
265 918 341 77 66 58
264 918 342 75 64 58
264 919 342 66 61 58
264 919 343 71 66 64
265 918 342 72 62 57
265 919 342 65 59 55
266 916 340 90 79 69
266 917 340 91 80 71
266 917 341 86 75 66
267 917 340 96 84 74
266 918 341 77 66 59
266 919 341 66 59 54
267 918 340 85 74 66
267 918 341 77 67 60
267 919 341 64 58 55
266 919 342 62 58 55
267 919 342 62 59 59
268 914 336 53 48 45
268 915 336 59 52 46
268 915 337 70 62 55
269 915 336 73 65 58
270 915 336 84 75 70
268 916 337 86 76 68
269 916 336 92 80 71
269 916 337 100 87 78
268 916 338 96 85 75
268 916 339 100 88 79
268 917 339 102 89 78
269 916 338 106 93 82
269 917 338 104 90 77
269 917 339 101 87 74
268 918 339 90 78 69
269 918 339 86 74 64
270 916 336 97 85 76
270 916 337 105 92 81
270 917 337 107 92 81
271 916 336 102 89 80
271 917 336 102 89 78
271 917 337 101 87 73
270 917 338 105 89 75
271 918 337 92 80 69
270 918 338 91 78 67
270 918 339 84 71 62
270 919 339 71 62 56
271 918 338 82 71 62
271 919 338 74 66 60
271 919 339 71 64 59
268 917 340 97 85 75
268 918 340 82 72 65
268 919 340 68 60 56
268 919 341 65 61 59
269 918 340 79 69 61
269 919 340 69 62 58
269 919 341 67 62 60
270 919 340 68 62 60
264 920 343 93 83 77
264 921 343 120 106 94
265 920 342 83 76 71
265 920 343 96 87 81
265 921 343 118 104 94
264 922 343 139 118 100
264 923 343 152 125 101
265 922 343 138 118 101
265 923 342 154 125 102
265 923 343 150 124 101
266 920 342 79 71 67
266 921 342 111 99 91
267 920 342 73 68 65
267 921 342 102 92 85
266 922 342 135 117 101
266 923 342 149 124 101
267 922 342 130 114 101
267 923 342 147 123 102
264 924 343 163 130 105
264 925 343 170 133 107
265 924 342 161 128 104
265 924 343 162 129 104
265 925 342 167 133 108
265 925 343 170 135 109
264 926 343 177 135 109
264 927 343 181 135 112
265 926 343 177 136 111
265 927 343 179 135 112
266 924 342 161 128 103
266 925 342 169 133 109
267 924 342 160 130 105
267 925 342 170 133 111
266 926 342 176 135 110
266 927 342 177 134 111
267 926 342 176 135 112
267 927 342 176 134 110
271 920 339 77 72 70
271 921 339 88 82 81
268 920 341 71 67 67
268 921 341 92 84 79
269 920 340 72 66 64
269 920 341 75 69 66
269 921 341 93 85 80
268 920 342 76 71 70
268 921 342 98 88 83
268 922 341 121 107 96
269 922 341 117 104 95
269 923 341 144 123 106
268 922 342 123 108 97
268 923 342 146 123 103
270 920 340 76 70 68
270 921 340 95 87 82
270 921 341 91 83 79
271 920 340 78 73 72
271 921 340 94 87 83
270 922 340 106 95 89
270 922 341 114 102 93
270 923 341 141 122 107
271 922 340 111 100 92
271 923 340 137 119 106
271 927 339 172 132 111
269 924 341 162 132 110
269 925 341 170 133 111
268 924 342 162 130 106
268 925 342 171 133 112
268 926 341 176 135 111
268 927 341 177 134 110
269 926 341 175 136 111
269 927 341 176 134 111
268 926 342 176 135 111
268 927 342 176 134 110
270 924 341 161 133 112
270 925 341 169 134 111
271 924 340 159 132 114
271 925 340 168 135 115
270 926 341 174 134 109
270 927 340 174 133 110
270 927 341 175 134 111
271 926 340 173 135 112
271 927 340 173 133 112
275 896 327 165 128 104
275 897 327 167 130 105
275 898 327 170 132 107
275 899 327 172 133 109
275 900 327 173 133 109
275 901 327 174 133 111
275 902 327 174 132 112
275 903 327 171 130 109
279 896 323 150 119 91
279 897 323 152 121 94
279 898 323 154 121 95
279 899 323 158 122 98
276 896 327 163 127 104
276 897 327 165 129 105
277 896 326 159 123 100
277 897 326 160 125 103
276 898 327 168 131 107
276 899 326 170 132 109
276 899 327 171 133 109
277 898 326 163 129 105
277 899 326 165 131 106
278 896 325 154 121 97
278 897 325 156 122 99
279 896 324 151 120 93
279 897 324 153 122 96
278 898 325 158 125 100
278 899 325 163 130 105
279 898 324 156 123 97
279 899 324 160 126 101
279 900 323 160 125 102
279 901 323 162 127 105
279 902 323 165 131 108
279 903 323 167 133 112
277 901 325 171 134 110
276 900 326 173 135 112
276 900 327 173 134 111
276 901 326 174 136 114
276 901 327 173 134 112
277 900 326 170 133 110
277 901 326 172 136 112
277 902 325 173 136 113
277 903 325 172 135 113
276 902 326 174 137 115
276 902 327 174 134 113
276 903 326 171 134 112
276 903 327 171 132 111
277 902 326 174 138 116
277 903 326 172 136 114
278 900 324 164 130 104
278 900 325 167 132 108
278 901 324 166 132 106
278 901 325 169 133 108
279 900 324 163 128 103
279 901 324 165 130 105
278 902 324 169 133 110
278 902 325 171 134 111
278 903 324 171 136 114
278 903 325 173 136 115
279 902 324 167 132 109
279 903 324 168 133 111
273 896 329 172 132 107
273 897 329 174 131 108
272 896 330 176 133 110
272 897 330 177 133 110
272 898 329 176 133 109
272 899 329 175 134 108
273 898 329 174 132 108
273 899 329 174 134 107
272 898 330 177 132 110
272 899 330 175 131 107
274 896 328 169 130 107
274 896 329 170 130 107
274 897 328 170 131 107
274 897 329 171 131 107
275 896 328 167 129 107
275 897 328 169 131 106
274 898 328 172 134 108
274 898 329 172 132 107
274 899 328 174 135 109
275 898 328 170 132 106
275 899 328 173 134 108
272 900 329 176 134 109
272 901 329 176 131 109
273 900 329 175 134 108
273 901 329 176 133 109
272 900 330 175 131 107
272 901 330 175 129 108
272 902 329 172 128 107
272 903 329 168 126 106
273 902 329 173 130 108
273 903 329 170 129 107
272 902 330 171 126 107
272 903 330 166 124 106
274 900 328 175 135 109
274 901 328 176 134 110
275 900 328 175 136 111
275 901 328 174 133 110
274 902 328 174 133 110
274 903 328 171 130 107
275 902 328 173 132 110
275 903 328 171 130 108
275 904 327 167 128 107
275 905 327 162 124 105
275 906 327 156 119 100
275 907 327 152 117 100
275 908 327 145 114 97
275 909 327 139 110 93
279 904 323 170 136 118
279 905 323 171 137 119
276 904 326 169 131 111
276 904 327 168 129 109
276 905 326 167 130 111
276 905 327 164 126 107
277 904 326 169 133 112
277 905 326 168 131 113
277 906 325 163 128 110
277 907 325 158 123 106
276 906 327 158 121 102
276 907 327 154 118 101
277 906 326 161 125 107
277 907 326 155 120 103
278 904 324 171 135 116
278 904 325 171 135 116
278 905 324 171 136 118
278 905 325 171 135 117
279 904 324 171 136 118
279 905 324 171 136 119
278 906 324 167 133 115
278 906 325 165 130 113
278 907 324 159 127 109
278 907 325 158 124 107
279 906 324 165 132 114
279 907 324 161 130 111
277 908 325 149 116 99
277 909 325 144 113 98
276 908 326 146 114 98
276 908 327 147 114 97
276 909 326 144 113 98
276 909 327 141 111 94
277 908 326 149 115 100
277 909 326 144 113 98
276 910 326 139 111 96
276 910 327 135 107 93
276 911 326 133 107 93
276 911 327 128 102 88
277 910 326 138 111 95
277 911 326 129 104 88
278 908 325 150 119 102
278 909 325 144 115 98
279 908 324 156 127 108
279 909 324 152 124 107
278 910 325 139 113 95
278 911 325 132 107 90
279 910 324 147 122 104
279 910 325 144 118 102
279 911 324 142 117 100
279 911 325 138 114 97
272 904 329 164 125 107
272 905 329 156 118 101
273 904 329 166 126 106
273 905 329 158 119 100
272 904 330 161 124 106
272 906 329 148 114 97
272 907 329 144 113 98
273 906 329 151 115 99
273 907 329 147 115 100
272 907 330 141 111 95
274 904 328 167 126 105
274 905 328 162 122 103
275 904 328 167 127 106
275 905 328 162 123 104
274 906 328 154 118 101
274 906 329 154 118 101
274 907 328 151 117 102
274 907 329 150 116 101
275 906 328 157 120 102
275 907 328 151 117 100
272 908 329 139 110 95
273 908 329 138 109 94
273 909 329 132 106 92
272 908 330 133 106 89
272 909 330 129 106 92
273 909 330 130 104 91
273 910 329 128 104 94
273 911 329 119 97 90
272 910 330 126 107 95
272 911 330 121 102 93
272 911 331 119 100 93
273 910 330 125 101 92
273 911 330 116 94 87
274 908 328 143 113 98
274 908 329 141 111 96
274 909 328 138 111 96
274 909 329 137 110 96
275 908 328 144 113 97
275 909 328 138 110 94
274 910 328 133 109 97
274 910 329 132 110 99
274 911 329 125 103 94
275 910 328 134 108 93
275 911 328 129 105 92
280 896 320 145 116 85
280 896 321 146 117 86
280 897 320 146 117 86
280 897 321 147 118 87
281 896 320 143 114 82
281 897 320 145 116 85
280 896 322 147 117 86
280 896 323 149 118 88
280 897 322 149 118 88
280 897 323 151 120 91
280 898 320 148 117 88
280 898 321 150 119 90
280 899 320 150 117 89
280 899 321 151 119 91
281 898 320 147 117 87
281 899 320 148 116 87
280 898 322 151 118 90
280 898 323 152 119 93
280 899 322 153 120 93
280 899 323 156 122 98
280 900 320 152 119 91
280 900 321 154 121 93
280 901 321 156 124 96
281 900 320 151 119 90
281 901 320 153 120 90
281 901 321 155 123 93
280 900 322 156 123 98
280 900 323 158 123 101
280 901 322 159 126 101
280 902 321 160 126 98
281 902 320 157 123 94
281 902 321 160 127 98
281 903 320 160 125 97
281 903 321 162 129 102
280 902 322 162 129 105
280 903 322 163 130 107
280 903 323 167 134 114
281 904 320 160 125 100
281 904 321 162 128 102
281 905 320 161 128 102
281 905 321 162 130 105
280 904 322 168 135 115
280 904 323 169 136 117
280 905 322 169 137 118
280 905 323 170 137 119
281 904 322 164 129 106
281 905 322 167 135 114
281 906 321 164 133 111
281 907 321 168 138 118
280 906 323 167 135 118
280 907 322 167 136 118
280 907 323 163 131 114
281 906 322 168 138 118
281 907 322 168 138 119
282 905 320 161 128 103
282 906 320 163 131 107
282 907 320 164 133 110
282 907 321 166 136 114
281 908 321 168 139 119
280 908 323 161 130 114
280 909 323 158 128 112
281 908 322 165 135 118
281 909 322 161 132 114
280 910 323 152 124 106
280 911 323 148 121 103
281 910 322 158 129 111
281 910 323 153 124 107
281 911 322 156 128 111
281 911 323 151 123 107
282 908 320 165 135 114
282 908 321 166 137 116
282 909 320 165 133 113
282 909 321 165 135 116
282 910 320 163 130 109
282 910 321 162 131 112
282 911 320 161 128 108
282 911 321 161 130 111
282 910 322 159 130 111
282 911 322 158 130 111
280 910 324 150 123 105
280 911 324 145 119 102
276 912 327 115 94 79
276 913 327 108 90 73
277 912 326 120 98 83
277 912 327 113 94 77
277 913 327 114 96 80
277 914 327 116 98 83
278 912 325 128 103 88
279 912 324 138 112 96
279 912 325 134 109 92
279 913 325 129 106 89
278 912 326 124 101 84
278 913 326 121 101 85
278 913 327 117 98 82
279 913 326 124 104 87
279 914 325 126 105 85
278 914 326 119 100 84
278 914 327 118 100 83
278 915 327 117 99 83
279 914 326 122 103 83
279 915 326 123 101 80
279 915 327 121 101 82
279 916 327 119 99 81
272 912 330 115 94 93
272 912 331 108 88 87
272 913 331 91 77 72
273 912 330 106 85 82
273 913 330 93 76 71
273 913 331 88 75 66
273 914 331 88 77 67
274 912 328 119 97 87
274 912 329 112 93 87
274 913 329 100 84 73
275 912 328 113 92 80
275 912 329 105 87 76
275 913 328 103 86 71
275 913 329 102 86 73
274 912 330 104 86 82
274 913 330 98 83 74
275 914 329 100 84 69
274 914 330 95 81 69
274 914 331 94 81 70
274 915 331 101 87 75
275 914 330 100 86 73
275 915 330 104 89 76
275 915 331 105 90 77
272 913 332 92 82 77
272 914 332 90 80 73
272 914 333 91 81 74
272 915 333 96 84 74
273 914 332 91 79 69
273 915 333 99 85 74
272 915 334 100 88 77
274 914 332 93 80 69
274 915 332 101 87 75
274 915 333 102 87 75
275 915 332 105 90 78
273 916 333 103 88 75
272 916 334 102 89 79
272 916 335 102 88 78
272 917 335 102 88 77
273 916 334 103 89 75
273 916 335 103 89 77
273 917 335 102 88 76
274 916 332 105 90 77
274 916 333 104 89 76
274 917 333 103 88 74
275 916 332 105 90 76
275 917 333 102 88 75
274 916 334 104 89 75
274 917 334 102 88 76
274 917 335 100 87 76
275 917 334 100 87 77
274 918 335 94 82 73
275 918 334 96 84 75
275 918 335 91 81 73
275 919 335 88 78 72
276 912 328 110 91 76
276 913 328 106 89 72
276 914 328 109 92 76
276 914 329 107 91 76
276 915 329 108 92 77
277 914 328 113 96 81
277 915 328 112 95 80
277 915 329 110 94 79
276 915 330 108 92 78
276 915 331 107 91 78
278 915 328 116 98 83
277 916 329 108 92 78
276 916 331 106 90 76
277 916 330 106 91 77
277 916 331 106 90 76
277 917 330 103 88 75
277 917 331 104 89 76
278 916 328 112 96 81
278 916 329 108 92 78
278 917 329 104 88 74
279 916 328 115 97 82
279 917 328 113 95 79
279 917 329 107 90 75
278 917 330 101 86 73
278 917 331 100 85 73
279 918 329 111 94 79
278 918 330 99 85 73
278 918 331 98 84 73
279 918 330 106 91 78
279 918 331 101 87 75
279 919 330 116 99 86
279 919 331 110 94 81
276 916 332 106 90 76
276 917 332 104 89 76
276 917 333 101 87 74
277 917 332 101 87 76
276 918 333 98 86 76
277 918 332 98 86 76
277 918 333 97 85 77
277 919 333 100 88 80
276 918 334 96 85 78
276 919 334 95 85 79
276 919 335 95 85 81
277 919 334 97 86 80
277 919 335 101 91 84
278 918 332 97 85 74
278 919 332 104 91 82
278 919 333 106 93 83
279 919 332 110 95 82
279 927 327 145 111 91
279 920 331 129 110 94
279 921 331 144 123 104
279 922 331 150 124 103
279 923 330 153 122 102
279 923 331 157 126 107
276 920 335 109 99 95
277 920 334 109 97 88
277 920 335 112 101 95
277 921 334 133 118 109
277 921 335 132 119 112
277 922 335 153 135 124
277 923 334 165 139 122
277 923 335 165 139 124
278 920 333 118 102 90
278 921 333 138 118 101
279 920 332 124 107 92
279 921 332 141 120 103
279 921 333 139 118 100
278 920 334 119 105 93
278 921 334 139 122 110
278 922 333 153 128 109
278 923 332 160 127 108
278 923 333 162 132 114
279 922 332 152 127 107
279 922 333 148 125 105
279 923 332 159 128 108
278 922 334 155 135 119
278 923 334 164 137 119
279 924 329 148 117 96
279 925 328 147 115 95
279 925 329 148 116 97
279 924 330 151 120 101
279 924 331 154 120 102
279 925 330 152 118 99
279 925 331 154 119 101
279 926 328 146 113 93
279 926 329 149 115 96
279 927 328 145 111 92
279 927 329 146 112 94
278 926 331 156 122 103
278 927 330 149 115 97
278 927 331 152 119 100
279 926 330 153 118 100
279 926 331 155 120 102
279 927 330 150 116 99
279 927 331 153 117 100
277 924 334 168 135 117
277 924 335 168 136 118
277 925 334 167 133 115
277 925 335 168 134 118
277 927 333 160 126 108
276 926 335 167 133 118
276 927 335 166 132 115
277 926 334 164 130 112
277 926 335 166 132 116
277 927 334 162 128 110
277 927 335 164 130 114
278 924 332 161 127 109
278 924 333 164 131 113
278 925 332 158 125 106
278 925 333 159 127 106
279 924 332 158 123 105
278 924 334 166 133 115
278 925 334 164 129 111
278 926 332 158 126 105
278 926 333 160 128 107
278 927 332 157 125 105
278 927 333 159 127 108
278 926 334 163 129 110
280 912 323 147 121 103
281 912 322 153 126 109
281 912 323 146 121 103
281 913 322 149 123 104
281 913 323 142 118 98
281 914 323 142 117 96
281 915 323 141 115 95
282 912 320 162 133 111
282 912 321 160 132 111
282 913 320 160 131 108
282 913 321 157 128 106
283 912 320 163 134 112
283 913 320 162 132 110
282 912 322 157 130 112
282 913 322 153 125 105
282 914 320 157 127 105
282 914 321 155 126 104
282 915 320 157 126 105
282 915 321 153 123 102
283 914 320 159 128 106
283 915 320 159 127 106
282 914 322 150 122 102
282 915 322 148 119 99
282 915 323 143 116 96
280 912 324 140 114 95
280 913 324 136 113 93
280 913 325 131 108 89
281 913 324 139 115 96
280 914 325 130 108 87
280 915 325 131 108 87
281 914 324 137 115 94
281 915 324 138 114 93
281 915 325 135 112 91
280 915 326 127 105 83
281 916 323 140 114 93
282 916 320 155 123 101
282 916 321 152 122 100
282 917 320 154 121 100
282 917 321 151 121 98
283 916 320 157 124 102
283 917 320 156 121 102
282 916 322 147 117 98
282 916 323 141 112 93
282 917 322 147 118 96
282 917 323 141 112 92
282 918 320 153 120 98
282 918 321 150 120 95
282 919 320 150 119 94
282 919 321 148 118 91
283 918 320 154 120 100
283 919 320 152 119 96
282 918 322 146 117 93
282 918 323 142 113 92
282 919 322 146 116 91
282 919 323 144 114 92
280 916 325 129 106 85
281 916 324 136 112 91
281 916 325 132 109 88
281 917 324 134 109 90
281 917 325 131 107 88
280 916 326 125 103 84
280 916 327 120 100 83
280 917 326 123 100 81
280 917 327 119 98 80
281 916 326 127 103 83
281 917 326 125 102 83
281 918 324 138 111 91
281 918 325 134 109 88
281 919 324 142 113 90
281 919 325 140 111 89
280 918 327 126 102 83
281 918 326 128 104 84
281 918 327 129 104 83
281 919 326 137 110 89
281 919 327 136 110 89
282 917 324 137 111 91
282 918 324 139 111 91
282 919 324 143 113 91
280 917 328 115 96 79
280 918 328 123 102 84
280 918 329 117 99 83
280 919 328 133 110 91
280 919 329 129 107 89
281 919 328 136 110 89
280 918 330 112 96 82
280 919 330 124 104 87
281 923 323 146 112 90
282 920 320 150 117 93
282 920 321 149 116 91
282 921 320 150 115 93
282 921 321 148 114 90
283 920 320 151 118 93
283 921 320 151 116 93
282 920 322 146 114 89
282 920 323 146 114 92
282 921 322 146 114 90
282 921 323 147 114 92
282 922 320 149 113 93
282 922 321 146 112 90
282 923 320 148 113 92
282 923 321 144 112 90
283 922 320 151 115 94
282 922 322 146 113 91
282 922 323 148 114 92
282 923 322 145 112 90
282 923 323 147 112 91
281 920 324 146 115 91
281 920 325 144 113 90
281 921 324 148 115 91
281 921 325 147 114 90
281 920 326 143 112 90
281 920 327 140 110 89
281 921 326 146 113 91
281 921 327 143 110 89
281 922 324 148 114 89
281 922 325 148 113 89
281 923 324 148 114 90
281 923 325 147 112 89
280 922 327 144 110 90
280 923 327 144 110 90
281 922 326 146 111 90
281 922 327 145 110 89
281 923 326 145 110 89
282 920 324 146 115 91
281 924 323 146 112 90
281 925 323 145 111 90
281 926 323 145 110 88
281 927 322 146 113 88
281 927 323 144 111 87
282 924 320 145 111 89
282 924 321 145 114 91
282 925 320 144 112 86
282 925 321 145 115 89
282 924 322 145 113 91
282 924 323 145 111 90
282 925 322 145 112 88
282 925 323 146 112 90
282 926 320 146 113 87
282 926 321 147 114 88
282 927 320 147 114 88
282 927 321 148 115 88
282 926 322 146 113 88
282 926 323 147 113 91
282 927 322 148 114 90
281 924 324 146 112 89
281 924 325 145 111 88
281 925 324 145 109 88
281 925 325 145 109 87
280 924 326 144 111 89
280 924 327 143 110 89
280 925 326 145 112 90
280 925 327 144 112 90
281 924 326 144 110 88
281 925 326 145 111 89
280 926 325 147 112 89
280 927 325 147 112 89
281 926 324 145 109 88
281 926 325 146 110 88
281 927 324 144 110 87
281 927 325 147 110 88
280 926 326 146 113 90
280 926 327 145 112 91
280 927 326 148 113 91
280 927 327 145 111 89
280 920 328 139 111 90
280 920 329 136 110 90
280 921 328 142 111 90
280 921 329 141 111 90
280 920 330 134 112 93
280 921 330 143 118 98
280 922 328 144 111 91
280 922 329 144 113 92
280 923 328 144 111 91
280 923 329 146 115 94
280 922 330 147 119 97
280 923 330 149 118 97
280 924 328 145 113 93
280 924 329 147 116 95
280 925 328 145 114 93
280 926 328 146 113 93
272 917 336 98 85 74
273 917 336 97 84 74
272 918 336 90 78 70
272 918 337 83 72 65
273 918 336 86 75 67
273 918 337 79 69 61
273 919 337 78 70 65
272 919 338 75 68 63
272 919 339 75 69 65
273 919 338 78 71 67
274 918 336 86 76 67
274 919 336 82 73 66
274 919 337 80 73 69
275 919 336 86 79 74
276 919 336 94 87 84
272 920 338 84 77 73
272 920 339 84 77 74
272 921 339 95 88 85
273 920 338 87 80 76
273 921 338 102 94 90
273 921 339 100 92 89
272 922 339 112 102 96
272 923 339 139 121 109
273 922 338 115 104 99
273 922 339 112 102 97
273 923 338 141 123 110
273 923 339 139 122 109
274 920 337 88 80 77
274 921 337 103 94 89
275 920 336 97 89 85
275 920 337 96 88 84
275 921 336 118 107 100
275 921 337 117 106 100
274 920 338 90 82 79
274 921 338 105 96 92
275 922 337 137 123 115
275 923 337 159 138 124
274 922 338 124 112 105
274 923 338 147 128 113
272 924 339 160 134 116
272 925 339 168 137 118
273 924 338 161 136 116
273 924 339 161 135 117
273 925 338 168 137 118
273 925 339 168 138 118
272 926 339 172 137 115
272 927 339 172 134 113
273 926 338 169 136 115
273 926 339 171 138 117
273 927 338 168 134 113
275 924 337 168 140 123
275 925 337 170 138 122
274 924 338 163 137 117
274 925 338 169 137 119
274 926 337 169 135 118
274 927 337 168 134 117
275 926 337 169 137 120
275 927 336 168 135 117
275 927 337 168 135 117
274 926 338 168 136 117
274 927 338 167 133 115
276 920 336 107 98 94
276 921 336 126 114 106
276 922 336 152 134 122
276 923 336 164 139 124
276 924 336 168 137 122
276 925 336 170 137 121
276 926 336 169 137 120
276 927 336 168 135 118
259 933 343 164 125 100
258 934 343 164 125 103
258 935 343 162 124 99
259 934 343 163 123 99
259 935 343 160 121 97
261 930 343 177 134 110
261 931 343 174 131 109
262 928 343 184 137 113
262 929 343 182 137 113
263 928 343 183 137 113
263 929 343 181 136 112
262 930 343 179 135 113
262 931 343 174 129 109
263 930 343 177 133 111
263 931 343 174 130 110
260 932 343 170 131 107
260 933 343 166 129 104
261 932 343 171 130 107
261 933 343 168 128 105
260 934 343 161 123 97
260 935 343 159 120 94
261 934 343 164 125 100
261 935 343 159 121 95
262 932 343 171 127 107
262 933 343 166 125 103
263 932 342 170 129 109
263 932 343 171 128 108
263 933 342 165 125 103
263 933 343 168 126 104
262 934 342 163 124 100
262 934 343 164 125 101
262 935 342 159 121 95
263 934 342 161 123 98
263 935 342 158 120 93
256 928 345 187 145 123
256 929 345 184 142 120
257 928 345 186 143 120
257 929 345 184 142 119
256 930 345 183 144 123
256 931 344 177 139 118
256 931 345 178 140 119
257 930 344 181 140 119
257 930 345 183 143 120
257 931 344 176 137 116
258 928 345 185 142 119
258 929 344 183 139 117
258 929 345 183 139 116
259 928 344 184 141 119
259 929 344 181 136 115
258 930 344 181 138 118
258 931 344 175 133 112
259 930 344 178 134 114
259 931 344 174 132 110
256 932 344 172 134 114
256 933 344 167 128 108
257 932 344 171 133 112
257 933 344 165 127 105
256 934 344 164 127 104
256 935 344 165 129 104
257 934 344 164 125 102
257 935 344 164 126 101
258 932 344 170 130 108
258 933 344 165 126 102
259 932 344 169 130 106
259 933 344 166 127 102
258 934 344 164 125 103
258 935 344 162 122 100
260 928 344 185 141 119
260 929 344 182 139 116
261 928 344 184 140 116
261 929 344 182 138 114
260 930 344 178 136 114
260 931 344 174 132 109
261 930 344 177 135 111
261 931 344 175 133 111
262 928 344 184 138 113
260 932 344 170 130 106
257 936 343 163 127 99
257 937 343 164 128 102
257 938 343 166 130 105
257 939 343 167 129 106
258 936 343 162 125 99
258 937 343 163 127 100
259 936 343 160 122 98
259 937 343 163 126 100
258 938 343 167 130 104
258 939 343 168 131 107
259 938 343 165 128 100
259 939 343 166 129 101
258 940 343 167 129 105
258 941 343 167 129 104
259 940 343 168 130 105
259 941 343 166 128 102
258 942 343 168 130 106
258 943 343 169 131 108
259 942 343 166 128 104
259 943 343 167 129 106
260 936 343 158 120 94
260 937 343 159 122 95
261 936 342 158 120 93
261 936 343 158 120 93
261 937 342 157 119 92
261 937 343 158 120 93
260 938 343 163 125 98
260 939 343 164 126 99
261 938 342 160 121 96
261 938 343 161 123 96
261 939 342 163 124 99
261 939 343 163 124 98
262 936 342 159 121 96
262 937 342 158 121 94
263 936 342 159 122 95
263 937 342 159 122 96
262 938 342 160 122 96
262 939 342 163 124 99
263 938 342 160 123 97
263 939 342 162 124 99
260 940 343 166 127 102
260 941 343 165 127 101
261 940 342 164 124 99
261 940 343 165 125 99
261 941 342 166 125 100
261 941 343 166 126 100
260 942 343 165 127 101
260 943 343 164 125 100
261 942 342 165 125 99
261 942 343 165 126 100
261 943 342 166 125 99
261 943 343 165 125 99
263 941 341 166 123 98
262 940 342 164 124 99
262 941 342 166 124 100
263 940 342 164 124 100
263 941 342 166 123 99
263 942 341 167 124 99
263 943 341 167 124 99
262 942 342 167 124 98
262 943 342 167 125 98
263 942 342 167 124 99
256 936 344 166 130 103
256 937 344 165 129 103
257 936 344 164 128 100
257 937 344 165 129 103
256 938 344 166 128 104
256 939 344 169 131 108
257 938 344 165 128 104
257 939 344 168 130 106
256 940 344 172 134 109
256 941 344 174 135 109
257 940 344 168 130 105
257 941 344 171 132 106
256 942 344 175 136 110
256 943 344 173 133 109
257 942 344 171 132 107
257 943 344 171 132 109
264 928 343 181 135 111
264 929 343 179 134 110
265 928 342 178 134 111
