ply
format ascii 1.0
element vertex 1916
property float x
property float y
property float z
property uchar red
property uchar green
property uchar blue
end_header
352 825 212 156 166 184
352 825 213 167 175 192
353 824 212 166 176 194
353 824 213 160 169 187
353 825 212 170 180 199
352 824 214 166 172 189
352 824 215 154 160 176
352 825 214 163 169 186
353 824 214 165 172 188
353 824 215 153 160 177
354 824 212 164 173 191
354 824 213 149 158 175
355 824 212 145 153 172
354 824 214 150 158 174
352 824 216 151 156 172
361 817 208 127 135 151
361 817 209 116 124 142
361 817 210 108 118 135
361 817 211 104 113 129
360 819 208 161 168 182
360 819 209 165 173 189
361 818 208 129 140 157
361 818 209 127 138 155
361 819 208 159 167 184
361 819 209 166 175 192
360 819 210 164 172 188
360 819 211 154 163 178
361 818 210 128 139 157
361 818 211 124 135 151
361 819 210 166 176 193
361 819 211 159 169 186
362 816 208 149 156 171
362 816 209 130 138 153
362 817 208 139 146 161
362 817 209 126 134 150
362 816 210 120 128 143
362 816 211 120 127 140
362 817 210 115 123 139
362 817 211 108 117 131
361 817 212 105 112 125
361 817 213 104 110 121
361 816 214 101 106 117
361 816 215 104 110 124
361 817 214 110 117 131
361 817 215 123 129 143
360 818 213 130 138 154
360 819 212 140 147 162
360 819 213 133 141 156
361 818 212 122 131 146
361 818 213 125 133 148
360 818 214 134 142 158
360 818 215 138 146 161
360 819 214 136 143 160
361 818 214 128 136 152
362 816 212 111 118 130
362 816 213 106 111 121
362 817 212 104 110 122
362 816 214 104 109 120
362 816 215 106 111 123
360 820 208 153 159 174
360 820 209 158 163 178
360 820 210 155 161 176
360 820 211 145 152 166
360 817 216 127 133 146
360 817 217 140 145 159
361 816 216 107 113 126
361 816 217 115 121 133
361 817 216 117 124 137
360 816 219 157 166 182
360 817 218 162 168 182
360 817 219 156 166 183
361 816 218 137 142 154
361 816 219 148 155 168
360 818 216 134 141 155
362 816 216 114 121 133
362 816 217 110 117 129
360 816 220 145 157 176
360 816 221 146 158 177
361 816 220 133 144 160
352 807 239 165 173 189
353 806 239 141 149 164
353 807 239 142 149 164
354 805 239 119 125 138
355 805 238 117 122 134
355 805 239 119 125 138
355 807 237 124 129 141
354 806 238 121 128 141
354 806 239 122 129 143
354 807 238 127 133 146
354 807 239 125 132 145
355 806 238 121 126 138
355 807 238 128 132 144
357 801 239 118 125 138
356 803 239 110 118 132
357 802 239 121 128 142
357 803 238 154 162 178
357 803 239 121 131 146
359 800 237 98 102 113
359 801 237 100 106 117
358 800 239 123 128 139
358 801 238 120 126 139
358 801 239 123 129 141
359 800 238 104 109 121
359 801 238 114 120 132
358 802 237 139 146 159
358 803 237 154 159 173
359 802 236 100 105 117
359 802 237 115 121 133
359 803 236 108 113 124
359 803 237 129 135 147
358 802 238 126 135 150
358 802 239 117 125 139
358 803 238 157 164 179
357 807 235 123 128 141
359 804 235 114 119 130
359 805 234 113 119 131
359 805 235 125 130 142
359 807 233 128 133 145
358 806 235 125 130 143
358 807 234 128 134 146
358 807 235 124 129 142
359 806 234 118 124 136
359 806 235 126 131 143
359 807 234 128 133 145
357 804 237 147 155 169
357 805 236 127 132 144
357 805 237 125 132 146
356 804 239 112 120 134
356 805 238 118 125 138
356 805 239 116 121 134
357 804 238 139 147 163
357 804 239 115 126 141
357 805 238 118 128 143
356 806 237 123 129 142
356 807 236 126 131 143
356 807 237 125 130 143
357 806 236 125 129 141
357 806 237 121 126 140
357 807 236 122 127 139
356 806 238 123 128 140
358 804 237 143 149 161
358 805 236 130 135 147
358 805 237 129 135 147
359 804 236 120 125 136
359 804 237 128 132 144
359 805 236 128 132 143
358 806 236 128 133 145
353 815 231 134 144 161
355 813 231 146 157 175
355 815 229 115 120 136
354 814 231 145 158 177
354 815 230 146 154 170
354 815 231 154 163 180
355 814 231 139 150 167
355 815 230 125 131 148
358 811 231 145 153 169
359 810 231 127 132 148
359 811 230 151 158 173
359 811 231 130 138 154
357 815 226 135 142 157
357 815 227 132 140 155
359 813 227 128 132 144
358 815 225 144 151 166
359 814 225 142 150 166
359 815 224 148 158 175
359 815 225 141 150 166
358 814 227 133 139 152
358 815 226 143 149 164
358 815 227 131 138 152
359 814 226 141 148 162
359 814 227 132 138 150
359 815 226 145 152 167
357 813 229 137 148 168
356 812 231 151 161 179
356 813 231 139 149 167
357 812 230 141 151 168
357 812 231 149 159 177
357 813 230 138 148 165
357 813 231 149 158 176
356 815 228 113 121 136
356 815 229 116 123 137
357 814 228 155 163 178
357 814 229 133 143 161
357 815 228 139 147 164
357 815 229 117 127 145
356 814 230 126 134 152
356 814 231 126 135 154
356 815 230 119 125 142
357 814 230 131 140 157
358 813 228 137 142 156
358 813 229 153 161 177
359 812 228 128 132 145
359 812 229 152 158 172
359 813 228 130 132 146
359 813 229 145 150 165
358 812 230 156 166 182
358 812 231 145 155 171
359 812 230 170 177 193
358 814 228 145 150 164
353 811 235 123 129 143
355 809 235 114 122 136
354 810 235 117 123 137
354 811 234 123 133 148
354 811 235 118 124 138
355 810 234 128 139 156
355 810 235 114 123 138
355 811 234 152 162 178
352 809 237 138 144 158
353 809 237 131 136 150
352 808 238 149 156 171
352 808 239 161 168 183
352 809 238 140 146 161
353 808 238 129 135 148
353 809 238 130 135 148
352 810 236 136 142 154
352 810 237 140 145 159
352 811 236 141 146 158
353 810 236 129 135 148
353 810 237 133 139 152
353 811 236 128 134 146
354 808 237 127 133 145
354 809 236 125 130 143
354 809 237 125 130 143
355 808 236 124 129 142
355 808 237 125 130 143
355 809 236 121 126 139
354 808 238 128 134 147
354 810 236 124 130 143
353 813 233 125 134 148
352 812 234 124 131 145
352 812 235 134 139 153
352 813 234 131 137 151
353 812 234 118 124 139
353 812 235 119 124 138
353 813 234 123 131 145
352 814 233 138 145 159
352 815 232 134 142 158
352 815 233 137 144 159
353 814 232 133 143 160
353 814 233 128 137 153
353 815 232 136 146 163
354 812 233 147 157 174
354 813 232 132 147 167
354 813 233 134 145 163
355 812 232 140 153 173
355 812 233 157 167 184
355 813 232 143 156 175
354 812 234 126 134 149
354 814 232 134 147 167
354 815 232 132 144 163
356 809 234 120 130 146
356 809 235 118 126 140
357 808 235 122 128 141
357 809 234 125 133 148
357 809 235 120 128 143
356 811 233 152 162 180
357 810 233 132 142 158
357 811 232 144 155 172
357 811 233 137 147 166
356 810 234 140 149 165
356 811 234 167 176 192
357 810 234 128 136 152
358 808 233 128 133 146
358 809 232 127 133 147
358 809 233 126 133 147
359 808 232 124 130 142
359 808 233 130 135 147
359 809 232 129 134 147
358 808 234 133 138 151
358 808 235 125 131 144
358 809 234 129 136 149
358 810 232 129 136 152
358 810 233 123 132 146
358 811 232 127 138 154
359 810 232 136 140 154
356 808 236 125 130 142
356 809 236 120 125 138
356 812 232 148 160 178
356 812 233 150 161 179
357 812 232 154 165 183
363 801 229 120 125 135
362 800 231 110 116 128
362 801 231 102 107 119
363 800 230 117 124 137
363 800 231 114 121 134
363 801 230 112 117 129
363 801 231 109 114 126
363 802 229 116 121 132
363 803 228 124 131 144
363 803 229 108 113 126
362 802 230 97 103 115
362 802 231 96 101 113
362 803 230 96 102 113
362 803 231 96 101 112
363 802 230 107 113 125
363 803 230 102 108 120
363 804 227 130 138 153
363 805 227 111 121 137
363 807 225 111 116 129
362 807 227 140 147 161
363 806 226 115 121 135
363 806 227 119 129 143
363 807 226 115 122 136
363 807 227 139 146 160
361 804 231 86 92 102
361 805 230 85 91 101
361 805 231 82 88 98
361 806 230 82 88 99
361 806 231 91 97 108
361 807 230 86 92 103
361 807 231 108 113 123
362 804 229 97 104 116
362 805 228 111 122 137
362 805 229 103 111 125
363 804 228 113 121 136
363 804 229 98 105 119
363 805 228 99 110 126
362 804 230 97 102 113
362 804 231 93 99 109
362 805 230 95 101 111
362 806 228 134 143 158
362 806 229 111 121 134
362 807 228 131 139 153
362 807 229 92 101 117
363 806 228 125 135 151
362 806 230 89 96 107
362 807 230 81 89 102
365 801 224 109 115 126
365 801 225 114 120 131
364 801 227 117 125 139
365 800 227 110 116 127
365 801 226 119 124 135
365 801 227 113 120 133
365 802 224 109 116 129
365 802 225 112 119 132
365 803 224 112 118 129
365 803 225 113 120 133
364 802 227 129 138 153
364 803 226 152 159 174
364 803 227 139 148 163
365 802 226 128 135 148
365 802 227 130 138 153
365 803 226 142 149 162
366 800 224 107 112 122
366 800 225 108 112 122
366 801 224 109 114 125
366 801 225 111 116 126
366 800 226 107 111 121
366 801 226 110 115 125
364 800 229 109 114 126
364 801 228 113 120 132
364 801 229 118 123 134
365 800 228 111 116 127
365 801 228 105 112 124
364 800 230 110 117 129
364 801 230 114 120 131
364 802 228 124 131 144
364 802 229 119 125 137
364 803 228 131 137 151
364 805 225 130 136 149
365 804 224 113 117 128
365 804 225 124 128 140
365 805 224 117 122 133
365 805 225 122 125 137
364 804 226 150 157 172
364 804 227 147 155 170
364 805 226 141 148 162
364 805 227 135 144 159
365 804 226 159 163 176
364 806 224 127 132 144
364 806 225 127 134 147
364 807 224 127 132 144
364 807 225 119 125 138
365 806 224 121 126 138
364 806 226 123 130 143
361 800 233 101 106 117
361 801 233 100 103 113
360 800 235 84 90 100
360 801 235 100 105 114
361 800 234 96 102 113
361 800 235 84 91 102
361 801 234 106 111 121
361 802 232 94 99 110
361 802 233 85 91 101
361 803 232 90 96 108
361 803 233 82 89 100
360 802 234 103 107 116
360 802 235 111 114 124
360 803 234 108 111 120
360 803 235 106 111 121
361 802 234 94 98 109
361 803 234 99 104 113
362 800 232 106 113 125
362 800 233 98 104 117
362 801 232 98 103 114
362 802 232 98 103 114
360 800 236 92 95 103
360 800 237 102 105 114
360 801 236 103 107 116
360 801 237 99 104 114
360 802 236 104 108 119
360 803 236 104 108 120
360 804 233 113 116 125
360 805 233 108 112 123
361 804 232 81 88 98
361 804 233 95 100 110
361 805 232 90 96 106
361 805 233 108 112 121
360 804 234 109 113 123
360 804 235 105 110 121
360 805 234 105 110 121
360 805 235 112 118 129
360 806 232 108 113 123
360 806 233 106 112 123
360 807 232 109 115 125
360 807 233 118 123 135
361 806 232 108 113 123
361 810 227 124 131 145
361 811 226 133 139 152
361 811 227 129 136 148
363 808 224 110 114 127
363 808 225 106 111 123
363 809 224 102 108 121
363 809 225 101 107 117
362 808 226 121 128 140
362 808 227 120 128 141
362 809 226 99 106 120
362 809 227 96 103 118
363 808 226 120 126 138
363 809 226 113 119 131
362 810 224 91 97 110
362 810 225 88 93 107
362 811 224 84 91 105
362 811 225 90 96 110
363 810 224 96 103 116
362 810 226 88 94 109
362 810 227 108 114 128
362 811 226 108 115 127
361 808 229 89 96 108
361 809 228 108 113 126
361 809 229 108 113 125
360 808 231 115 119 129
360 809 230 109 114 125
360 809 231 120 125 137
361 808 230 102 107 117
361 808 231 112 117 126
361 809 230 107 113 123
360 810 229 113 120 134
360 811 228 121 128 141
360 811 229 128 134 146
361 810 228 126 133 146
361 810 229 109 116 130
361 811 228 123 131 144
360 810 230 116 122 135
360 810 231 118 124 138
360 811 230 133 139 151
362 808 228 97 105 120
362 808 229 83 91 108
362 809 228 90 98 113
360 813 225 127 134 147
361 812 224 115 119 129
361 812 225 135 138 149
361 813 224 119 124 133
361 813 225 126 131 142
360 812 226 117 124 137
360 812 227 121 127 140
360 813 226 124 131 144
360 813 227 124 130 142
361 812 226 126 133 145
361 812 227 122 128 141
360 814 224 136 144 159
360 814 225 136 144 158
360 815 224 143 154 172
360 814 226 138 144 157
362 812 224 91 97 110
362 812 225 107 113 125
360 812 228 124 129 141
360 812 229 131 136 148
364 808 224 115 120 134
360 808 232 119 124 134
360 808 233 125 129 141
360 809 232 126 131 144
353 801 243 152 160 176
353 803 241 129 136 150
352 802 243 128 137 152
352 803 242 130 136 151
352 803 243 128 136 150
353 802 242 130 137 151
353 802 243 142 149 164
353 803 242 131 137 152
354 800 243 139 150 168
354 801 242 121 131 147
354 801 243 138 148 164
355 800 242 110 120 138
355 800 243 122 133 150
355 801 242 109 117 134
354 802 241 122 129 143
354 803 241 128 134 148
355 802 241 115 122 136
355 803 240 125 131 143
355 803 241 129 134 147
354 802 242 123 131 146
355 802 242 111 119 134
352 800 244 138 144 158
352 800 245 135 140 153
352 801 244 134 141 156
353 800 244 141 149 164
353 801 244 142 152 168
352 802 244 131 139 154
354 800 244 141 152 169
352 804 241 128 136 151
352 805 240 143 152 168
352 805 241 134 142 158
353 804 241 128 135 150
353 805 240 135 144 160
353 805 241 131 140 156
352 804 242 132 139 154
353 804 242 129 135 151
352 806 240 153 162 179
352 807 240 159 168 185
353 806 240 146 155 171
354 804 240 127 132 144
354 804 241 130 136 149
354 805 240 123 129 143
355 804 240 124 129 142
355 805 240 124 129 141
356 800 241 119 129 145
356 801 241 108 118 133
357 800 240 133 140 154
357 800 241 144 152 167
357 801 240 136 142 157
357 801 241 135 143 158
356 800 242 108 118 134
356 802 240 114 120 134
356 802 241 106 114 129
356 803 240 115 122 135
357 802 240 121 128 142
358 800 240 125 130 142
356 804 240 117 123 137
353 819 224 158 164 179
353 819 225 150 158 173
352 818 227 122 131 146
352 819 226 146 155 170
352 819 227 127 135 151
353 818 226 136 144 160
353 818 227 123 131 147
353 819 226 145 153 169
355 817 225 136 143 158
354 817 227 122 129 144
355 816 227 122 127 143
355 817 226 134 141 156
355 817 227 123 130 146
354 818 224 141 149 164
354 818 225 135 143 159
354 819 224 146 153 168
354 819 225 143 151 166
355 818 224 142 148 163
355 818 225 135 143 158
354 818 226 135 142 158
354 818 227 126 134 148
355 818 226 132 140 155
353 817 228 117 125 139
353 817 229 125 130 144
352 816 231 134 141 156
352 817 230 143 149 163
353 816 230 140 145 160
353 816 231 140 147 162
353 817 230 138 143 157
352 818 228 126 133 148
352 818 229 136 141 155
353 818 228 123 129 145
353 818 229 130 135 149
354 816 229 118 125 140
354 817 228 119 126 139
354 817 229 118 126 140
355 816 228 120 125 138
355 816 229 115 121 136
355 817 228 121 127 140
354 816 230 137 144 160
352 820 224 157 165 181
352 820 225 160 168 184
353 820 224 162 169 184
352 820 226 152 161 178
356 817 224 135 142 158
356 817 225 138 146 160
357 816 224 143 146 160
357 816 225 143 148 162
357 817 224 141 145 161
357 817 225 142 148 163
356 816 226 135 140 156
356 816 227 123 129 145
356 817 226 137 143 157
357 816 226 137 142 157
357 816 227 124 131 147
356 818 224 136 142 158
358 816 224 142 148 163
358 816 225 143 148 161
356 816 228 120 126 140
352 816 232 133 141 156
320 832 175 130 138 152
321 832 175 130 138 152
320 833 176 132 140 155
321 832 176 130 138 152
321 833 176 129 137 152
321 833 177 133 142 157
320 834 177 143 151 166
321 834 177 140 148 163
320 834 178 150 158 173
320 835 178 149 157 172
320 835 179 142 151 166
321 834 178 149 158 173
321 834 179 154 162 177
321 835 179 153 161 176
322 832 176 133 140 154
322 832 177 133 141 156
322 833 177 132 140 155
323 832 176 136 144 159
323 832 177 139 147 161
322 833 178 134 143 159
323 833 178 133 142 157
323 833 179 133 142 157
322 834 178 139 148 164
322 834 179 146 153 168
323 834 179 135 143 158
321 835 180 149 157 171
322 834 180 146 153 168
322 835 180 146 154 168
322 835 181 139 147 162
323 834 180 138 145 159
323 835 180 140 148 162
323 835 181 137 145 160
323 835 182 137 145 160
320 836 179 135 144 159
320 836 180 136 145 160
320 837 180 135 143 158
320 837 181 135 144 159
321 836 180 142 150 165
321 836 181 139 148 163
321 837 181 136 145 161
320 837 182 136 146 162
321 837 182 140 150 166
321 837 183 152 161 177
320 838 182 140 150 167
320 838 183 148 158 175
321 838 183 156 165 182
322 836 181 140 149 164
322 836 182 143 151 166
322 837 182 142 151 167
322 837 183 149 157 173
323 836 182 140 148 163
323 836 183 141 149 163
323 837 183 141 149 163
324 832 177 148 156 171
324 832 178 147 155 170
324 833 178 139 147 162
324 833 179 138 146 161
325 832 178 148 156 171
325 832 179 144 152 167
325 833 179 143 151 166
326 832 179 137 145 160
324 833 180 135 142 157
325 833 180 135 143 158
324 834 180 134 141 156
324 834 181 135 143 157
324 835 181 135 143 158
325 834 180 134 141 155
325 834 181 135 142 156
324 835 182 138 146 161
324 835 183 140 148 163
325 834 182 134 142 156
325 835 182 136 144 159
325 835 183 139 147 161
326 832 180 131 140 155
326 833 180 130 138 153
326 833 181 131 138 153
327 832 180 129 138 153
327 832 181 130 138 153
327 833 181 131 138 153
327 833 182 131 139 153
326 834 181 135 142 156
326 834 182 134 141 156
326 834 183 136 144 158
326 835 183 137 146 161
327 834 182 133 140 155
327 834 183 134 142 157
324 836 183 140 148 163
325 836 183 140 148 163
320 838 184 158 167 185
320 839 184 153 164 181
320 839 185 154 164 181
321 838 184 165 174 191
321 839 184 163 173 190
321 839 185 161 170 188
320 839 186 158 168 185
321 839 186 160 170 188
321 839 187 155 165 182
322 837 184 154 162 177
323 837 184 143 152 168
323 837 185 144 153 170
322 838 184 161 170 186
322 838 185 156 165 182
322 839 185 161 171 188
323 838 185 147 156 173
322 838 186 152 162 179
322 839 186 158 168 185
322 839 187 154 163 181
323 838 186 148 157 174
323 838 187 149 158 175
323 839 187 150 159 176
322 839 188 150 160 177
323 839 188 148 157 174
323 839 189 149 158 175
325 835 184 141 149 165
326 835 184 145 153 169
327 834 184 135 144 159
327 835 184 144 153 168
327 835 185 154 162 178
324 836 184 139 148 163
324 837 184 142 151 166
324 837 185 143 152 168
325 836 184 142 151 166
325 836 185 146 155 171
325 837 185 144 153 169
324 837 186 143 153 169
325 836 186 146 156 172
325 837 186 143 153 169
325 837 187 145 155 172
324 838 186 145 154 171
324 838 187 148 157 174
325 838 187 146 156 172
326 836 184 152 160 176
326 836 185 159 167 182
327 836 185 162 169 185
326 836 186 154 163 180
326 836 187 150 159 176
326 837 187 146 156 173
327 836 186 155 163 180
327 836 187 148 158 174
327 837 187 147 157 174
324 838 188 147 156 173
324 839 188 146 155 172
324 839 189 146 156 173
325 838 188 147 156 173
325 838 189 147 157 175
325 839 189 147 156 174
324 839 190 146 156 173
325 839 190 147 156 174
325 839 191 145 155 173
326 837 188 146 156 173
327 837 188 147 157 174
327 837 189 149 159 177
326 838 188 146 157 174
326 838 189 148 159 176
327 838 189 151 161 179
326 838 190 150 161 179
326 839 190 150 161 178
326 839 191 150 161 179
327 838 190 159 169 187
327 838 191 164 174 192
327 839 191 157 167 186
320 840 186 152 162 178
320 840 187 147 158 175
321 840 187 152 162 180
320 840 188 145 156 173
320 841 188 145 156 174
320 841 189 143 154 172
321 840 188 146 157 174
321 841 188 143 154 172
321 841 189 142 153 172
321 841 190 141 152 170
321 841 191 140 151 169
320 842 189 144 154 173
320 842 190 144 155 174
320 842 191 150 162 181
320 843 191 160 171 190
321 842 191 144 155 173
322 840 188 148 158 176
322 840 189 144 155 172
322 841 189 142 153 171
323 840 189 149 158 175
322 840 190 146 157 174
322 841 190 144 155 172
322 841 191 145 155 173
323 840 190 150 160 177
323 840 191 149 158 175
323 841 191 149 158 175
324 840 190 147 157 174
324 840 191 144 154 172
325 840 191 142 152 170
328 832 180 128 137 152
328 832 181 130 139 154
329 832 181 138 146 162
328 833 182 132 141 156
328 833 183 133 141 157
329 832 182 142 151 166
329 832 183 144 153 169
329 833 182 132 142 157
329 833 183 138 147 163
328 834 183 133 141 157
330 832 182 159 167 182
330 832 183 158 166 181
330 833 183 155 163 178
331 832 183 159 167 183
329 833 184 141 150 166
328 834 184 134 143 159
328 835 184 137 147 162
328 835 185 142 151 167
329 834 184 134 144 160
329 834 185 138 147 163
329 835 185 141 150 166
328 835 186 143 152 168
328 835 187 141 151 167
329 834 186 139 148 164
329 835 186 142 151 167
329 835 187 142 152 168
330 833 184 151 160 176
330 833 185 143 153 169
331 832 184 152 161 177
331 832 185 142 152 169
331 833 184 150 159 175
331 833 185 143 152 169
331 833 186 141 150 166
330 834 185 140 149 165
330 834 186 140 150 166
330 834 187 145 154 170
330 835 187 145 154 171
331 834 186 141 150 167
331 834 187 144 153 170
329 835 188 142 151 168
330 835 188 144 154 171
330 835 189 144 154 170
331 834 188 145 155 171
331 835 188 145 155 171
331 835 189 146 156 173
331 835 190 150 159 176
328 836 186 143 152 168
328 836 187 143 152 169
328 836 188 142 152 169
328 836 189 142 152 169
328 837 188 145 155 172
328 837 189 148 158 175
329 836 188 142 151 167
329 836 189 141 151 168
328 837 190 153 163 180
328 837 191 155 165 183
329 836 190 144 154 172
329 837 190 145 156 173
329 837 191 146 157 175
328 838 190 164 173 190
328 838 191 166 175 193
330 836 189 142 152 169
330 836 190 147 157 174
330 836 191 149 159 176
330 837 191 145 156 174
331 836 190 150 160 176
331 836 191 156 166 183
332 832 184 149 159 176
332 832 185 140 150 167
333 832 185 141 150 167
332 832 186 136 146 163
332 833 186 138 147 164
332 833 187 143 152 169
333 832 186 140 150 166
333 832 187 141 150 167
333 833 187 146 155 171
332 834 187 144 153 169
334 832 186 140 149 166
334 832 187 142 152 168
335 832 187 146 155 172
332 833 188 145 155 172
333 833 188 146 156 173
333 833 189 143 154 172
332 834 188 143 152 169
332 834 189 144 154 171
332 835 189 146 156 172
333 834 189 143 154 172
332 834 190 148 158 175
332 835 190 151 160 177
332 835 191 162 172 189
333 834 190 151 162 180
333 834 191 167 178 196
333 835 191 166 176 195
334 832 188 146 155 172
334 833 188 146 155 172
334 833 189 145 156 173
335 832 188 146 156 173
335 832 189 146 156 174
335 833 189 147 157 175
334 833 190 150 161 179
335 832 190 145 156 174
335 833 190 151 162 180
335 833 191 160 171 189
334 834 190 161 171 190
334 834 191 170 181 200
335 834 191 170 181 200
332 836 191 165 175 192
336 832 189 144 155 172
336 832 190 142 154 172
336 832 191 147 158 176
336 833 191 151 161 180
337 832 190 143 154 172
337 832 191 146 156 174
326 839 192 149 160 178
327 839 192 156 166 184
327 839 193 147 158 176
327 839 194 147 158 176
320 843 192 167 178 196
320 843 193 172 182 200
321 842 192 147 158 176
321 842 193 149 160 178
321 843 192 160 171 189
321 843 193 158 169 187
320 843 194 164 174 192
321 843 194 149 160 179
321 843 195 145 156 174
322 841 192 147 157 174
323 841 192 148 158 175
323 841 193 147 157 175
322 842 192 145 156 173
322 842 193 147 158 176
323 842 193 147 158 175
322 842 194 150 161 179
322 843 194 150 160 179
322 843 195 148 159 177
323 842 194 152 162 179
323 842 195 151 162 179
323 843 195 152 162 180
321 843 196 148 158 177
322 843 196 151 162 180
322 843 197 159 169 186
323 842 196 154 164 182
323 842 197 159 169 187
323 843 196 154 164 182
323 843 197 160 170 188
322 843 198 172 182 200
322 843 199 180 191 209
323 843 198 169 179 198
323 843 199 172 183 202
320 844 194 155 166 185
320 844 195 146 158 176
321 844 195 145 156 174
320 844 196 146 157 175
320 844 197 149 160 178
320 845 196 144 155 174
320 845 197 145 157 176
321 844 196 149 159 177
321 844 197 156 167 184
320 844 198 148 159 178
320 845 198 147 158 177
320 845 199 153 163 182
321 844 198 162 172 190
321 844 199 162 172 191
322 844 198 174 184 202
322 844 199 176 186 205
324 840 192 143 154 171
324 841 192 145 155 172
324 841 193 147 157 174
325 840 192 145 155 173
325 840 193 146 157 175
325 841 193 148 158 175
324 841 194 151 161 178
325 840 194 148 159 177
325 841 194 152 162 179
325 841 195 152 163 181
324 842 194 153 163 180
324 842 195 151 162 179
326 840 192 148 158 176
326 840 193 145 156 175
327 840 193 145 156 175
326 840 194 150 160 178
326 840 195 153 163 181
326 841 195 154 164 182
327 840 194 149 159 177
327 840 195 151 161 179
325 841 196 154 165 183
325 841 197 160 170 188
325 841 198 162 173 192
325 841 199 157 169 188
324 842 196 153 163 181
324 842 197 155 166 184
325 842 196 153 164 182
325 842 197 154 165 183
324 842 198 154 166 185
324 842 199 155 167 186
325 842 198 151 163 182
325 842 199 152 164 183
326 840 196 155 165 183
326 841 196 157 167 185
326 841 197 166 176 194
327 840 196 155 165 183
327 840 197 167 177 195
326 841 198 168 178 197
326 841 199 158 169 189
327 840 198 165 176 194
327 840 199 158 168 186
327 841 199 156 166 185
322 843 200 167 178 197
322 843 201 155 166 185
323 843 200 165 177 196
323 843 201 154 165 184
322 843 202 153 162 180
322 843 203 154 163 180
323 843 202 150 159 177
323 843 203 146 155 173
322 843 204 161 170 187
322 843 205 169 178 195
323 843 204 146 155 172
323 843 205 152 161 178
322 843 206 158 167 184
322 843 207 148 158 176
323 843 206 152 160 177
323 843 207 148 156 173
320 845 200 151 161 179
320 845 201 147 158 176
321 844 200 152 165 184
321 844 201 150 162 181
321 845 201 148 159 178
320 845 202 144 154 173
320 845 203 145 155 175
321 844 202 149 159 178
321 844 203 160 170 188
321 845 202 146 156 175
321 845 203 153 163 182
322 844 200 163 175 194
322 844 201 154 165 184
322 844 202 151 161 179
322 844 203 159 168 185
320 845 204 156 167 186
320 845 205 163 174 193
321 844 204 179 188 206
321 844 205 178 187 206
321 845 204 171 181 200
320 845 206 162 173 192
320 845 207 158 168 187
321 844 206 164 174 193
321 844 207 156 167 185
322 844 204 173 182 199
322 844 205 180 188 205
322 844 206 161 171 188
322 844 207 148 159 177
325 841 200 150 162 181
325 841 201 146 157 176
324 842 200 155 167 186
324 842 201 149 160 179
324 843 201 147 158 177
325 842 200 150 162 181
325 842 201 148 159 176
324 842 202 145 155 172
324 842 203 145 155 172
324 843 202 145 155 173
324 843 203 143 152 169
325 842 202 145 154 172
325 842 203 146 155 171
326 841 200 150 161 180
326 841 201 143 153 172
327 840 200 149 159 177
327 840 201 146 155 173
327 841 200 148 159 178
327 841 201 144 154 172
326 841 202 142 151 168
326 841 203 144 152 169
327 840 202 144 153 171
327 841 202 143 151 169
327 841 203 144 152 170
325 841 206 167 173 188
325 841 207 162 168 184
324 842 204 148 156 172
324 842 205 147 155 171
324 843 204 144 153 170
324 843 205 145 153 170
325 842 204 148 155 171
325 842 205 154 161 176
324 842 206 148 155 171
324 842 207 150 156 171
325 842 206 158 164 180
325 842 207 152 158 175
326 841 204 146 154 170
326 841 205 153 160 175
327 841 204 147 154 171
327 841 205 150 157 174
326 841 206 164 171 186
326 841 207 164 170 185
327 840 207 147 155 170
327 841 206 151 158 174
327 841 207 151 159 174
329 837 192 149 159 177
328 838 192 157 168 186
328 838 193 148 158 176
328 839 192 158 168 186
328 839 193 148 159 177
329 838 192 150 161 179
329 838 193 147 158 176
328 839 194 148 159 177
328 839 195 152 162 180
329 838 194 148 158 176
329 838 195 150 161 179
329 839 194 149 160 178
329 839 195 150 161 178
330 837 192 151 162 180
330 837 193 148 160 178
331 836 192 167 176 195
331 836 193 166 177 195
331 837 192 162 173 191
331 837 193 157 168 187
330 837 194 148 159 178
331 837 194 153 164 183
331 837 195 153 164 183
330 838 194 148 159 177
330 838 195 150 160 179
331 838 195 151 162 181
328 839 196 153 163 181
328 839 197 157 168 185
329 839 196 152 162 180
329 839 197 154 165 183
328 839 198 152 163 182
328 839 199 151 161 179
329 839 198 153 164 182
329 839 199 154 164 182
330 838 196 150 161 179
330 838 197 151 162 181
330 839 197 152 163 181
331 838 196 149 160 180
331 838 197 152 163 182
330 838 198 155 166 184
330 838 199 158 168 186
330 839 198 155 165 183
330 839 199 159 168 186
331 838 198 156 166 185
331 838 199 156 167 184
332 835 192 167 178 197
333 835 192 169 180 200
333 835 193 160 173 194
333 835 194 157 170 190
335 833 192 165 176 195
334 834 192 169 181 200
334 835 192 170 182 201
334 835 193 163 176 197
335 834 192 168 180 199
335 834 193 167 179 199
334 835 194 163 176 197
334 835 195 163 176 196
335 834 194 168 180 200
335 835 194 169 182 202
335 835 195 169 181 201
335 835 196 167 179 199
335 835 197 166 178 197
335 835 198 161 172 191
335 835 199 158 170 188
332 836 192 171 181 199
332 836 193 161 173 193
333 836 193 157 171 191
332 836 194 157 169 189
332 837 194 156 168 187
332 837 195 156 167 187
333 836 194 157 170 190
333 836 195 160 172 191
334 836 194 160 173 193
334 836 195 162 175 195
332 837 196 159 170 190
332 837 197 163 174 193
333 836 196 166 179 198
333 836 197 166 178 198
333 837 196 165 177 196
333 837 197 168 179 199
332 837 198 155 167 187
332 837 199 151 163 183
333 836 198 155 168 188
333 836 199 156 168 187
333 837 198 154 167 187
333 837 199 154 166 185
332 838 197 158 169 188
332 838 198 156 167 186
332 838 199 153 165 183
334 836 196 168 180 200
334 836 197 164 176 196
335 836 197 163 175 195
334 836 198 161 173 192
334 836 199 159 171 190
335 836 198 162 174 193
335 836 199 159 171 190
329 839 200 155 166 183
329 839 201 156 166 184
329 839 202 156 166 185
329 839 203 157 168 186
330 838 200 160 170 188
330 838 201 161 171 189
330 839 200 160 170 187
330 839 201 160 170 188
331 838 200 157 167 186
331 838 201 163 173 192
330 839 202 168 179 198
330 839 203 175 186 204
331 838 202 181 191 210
331 838 203 182 192 211
329 839 204 160 170 188
329 839 205 155 164 182
329 839 206 146 154 171
329 839 207 148 156 172
330 839 204 171 181 199
330 839 205 162 171 189
331 838 204 179 189 207
331 838 205 167 176 194
331 839 205 161 170 188
330 839 206 148 157 174
330 839 207 145 153 169
331 838 206 150 160 177
331 838 207 145 153 171
331 839 206 152 162 180
331 839 207 145 154 171
335 835 200 158 169 187
335 835 201 157 166 184
335 835 202 152 162 179
335 835 203 149 158 175
335 835 204 148 156 172
335 835 205 148 155 171
332 837 200 152 163 183
332 837 201 153 164 184
333 837 200 153 164 183
333 837 201 150 161 179
332 837 202 162 173 192
332 837 203 173 183 202
333 837 202 151 162 180
333 837 203 157 167 185
332 838 200 154 164 184
332 838 201 157 168 187
332 838 202 176 186 205
332 838 203 181 191 210
334 836 200 156 167 185
334 836 201 152 163 181
335 836 200 158 168 187
335 836 201 156 166 184
334 836 202 151 160 178
334 836 203 149 159 176
335 836 202 152 162 179
335 836 203 148 157 174
332 837 204 173 182 200
332 837 205 164 174 192
333 837 204 161 170 187
333 837 205 155 165 182
332 837 206 147 157 174
332 837 207 138 148 165
333 837 206 147 156 173
333 837 207 138 148 165
332 838 204 174 185 203
332 838 205 164 174 192
332 838 206 146 156 173
332 838 207 141 150 167
334 836 204 146 156 173
334 836 205 147 155 171
335 836 204 146 155 171
335 836 205 145 153 168
334 836 206 145 151 167
334 836 207 141 147 164
334 837 206 142 150 166
334 837 207 138 147 164
335 836 206 145 152 167
335 836 207 145 151 167
328 840 195 152 162 180
328 840 196 153 163 181
328 840 197 161 171 189
328 840 198 158 169 187
328 840 199 151 161 180
328 840 200 149 159 177
328 840 201 148 157 175
329 840 200 151 162 180
329 840 201 152 161 179
328 840 202 147 156 174
328 840 203 147 155 173
329 840 202 149 159 177
329 840 203 151 161 179
328 840 204 148 156 173
328 840 205 150 157 174
329 840 204 153 162 180
329 840 205 149 157 174
328 840 206 150 157 173
328 840 207 146 153 168
329 840 206 149 156 172
329 840 207 150 156 172
327 839 211 137 143 162
325 839 213 139 148 164
324 839 215 147 155 171
325 839 214 138 146 162
325 839 215 136 145 160
326 839 212 138 146 162
326 839 213 135 143 160
327 838 213 145 153 170
327 839 212 143 150 166
327 839 213 143 151 167
326 838 214 131 138 158
326 838 215 132 140 159
326 839 214 132 139 158
327 838 214 133 142 161
327 838 215 132 140 161
321 839 219 145 153 168
323 839 217 155 162 177
322 839 218 160 168 183
322 839 219 142 151 167
323 838 219 131 140 156
323 839 218 148 155 171
323 839 219 140 148 164
320 839 221 142 148 162
321 838 221 121 129 144
321 839 220 133 142 158
321 839 221 131 138 154
320 838 223 135 141 155
320 839 222 141 147 161
320 839 223 140 146 159
321 838 222 124 131 146
321 838 223 129 136 150
321 839 222 134 141 154
323 837 221 123 128 144
322 837 223 118 124 141
323 836 223 137 143 161
323 837 222 124 129 145
323 837 223 128 133 150
322 838 220 125 134 151
322 838 221 117 127 143
322 839 220 126 135 152
323 838 220 125 132 149
323 838 221 120 127 144
322 838 222 117 125 140
322 838 223 119 127 142
325 835 223 173 182 200
326 835 221 150 158 173
327 835 220 145 149 163
327 835 221 152 158 172
326 834 223 164 173 191
326 835 222 171 178 194
326 835 223 171 179 196
327 834 222 152 158 173
327 834 223 158 164 180
327 835 222 156 162 176
325 837 218 126 134 149
325 837 219 126 132 148
324 839 216 144 152 168
324 839 217 141 149 164
325 838 216 132 140 156
325 838 217 131 139 154
325 839 216 136 145 160
324 838 218 131 139 154
324 838 219 128 136 151
324 839 218 138 146 161
325 838 218 126 135 150
325 838 219 124 133 148
326 837 216 129 135 154
326 837 217 129 136 153
327 837 216 134 141 161
327 837 217 140 147 164
326 836 219 138 143 158
326 837 218 130 137 153
326 837 219 134 140 155
327 836 218 136 142 159
327 836 219 136 141 156
327 837 218 132 139 156
326 838 216 129 136 155
326 838 217 130 137 153
327 838 216 131 136 158
324 837 220 123 128 145
324 837 221 127 131 147
325 836 220 133 138 156
325 836 221 148 153 168
325 837 220 128 132 149
325 837 221 131 135 152
324 836 222 152 156 170
324 836 223 163 169 184
324 837 222 138 142 156
324 837 223 153 157 172
325 836 222 167 172 186
325 836 223 172 179 194
324 838 220 121 129 145
326 836 220 142 146 162
326 836 221 149 154 171
327 836 220 143 147 161
321 843 209 144 150 166
321 843 210 150 156 171
321 843 211 152 158 173
322 843 208 140 149 169
322 843 209 139 144 164
323 842 208 146 153 171
323 842 209 145 151 170
323 843 208 146 153 171
323 843 209 141 147 167
322 842 211 146 153 168
322 843 210 145 150 167
322 843 211 151 157 172
323 842 210 143 148 167
323 842 211 143 150 167
321 841 215 148 154 172
320 843 212 149 155 170
320 843 213 143 151 165
321 842 213 146 153 168
321 843 212 150 156 171
321 843 213 146 153 167
320 842 214 142 149 165
320 842 215 146 152 169
320 843 214 142 149 165
321 842 214 146 153 168
321 842 215 149 155 172
322 841 213 149 155 172
323 841 212 148 156 172
323 841 213 151 158 175
322 840 215 151 158 172
322 841 214 145 151 168
322 841 215 149 154 170
323 840 214 152 158 174
323 840 215 150 157 173
323 841 214 151 157 173
323 841 215 149 155 171
322 842 212 147 154 170
322 842 213 147 153 169
322 843 212 151 157 172
323 842 212 144 151 168
322 842 214 145 151 167
320 844 208 150 158 174
320 844 209 147 155 171
320 845 208 152 160 177
320 845 209 148 155 171
321 844 208 145 153 171
321 844 209 146 153 169
320 844 210 150 156 172
320 844 211 152 158 173
321 844 210 150 157 172
320 844 212 150 156 171
325 841 208 153 160 176
325 841 209 149 157 173
324 841 210 153 161 177
324 841 211 157 166 183
325 840 211 153 161 178
325 841 210 152 160 177
325 841 211 167 176 193
324 842 208 152 158 173
324 842 209 150 156 172
325 842 208 155 161 175
325 842 209 153 160 175
324 842 210 147 154 171
324 842 211 145 153 170
326 840 209 147 154 170
326 841 208 152 160 176
326 841 209 146 154 171
327 840 208 149 156 171
327 840 209 147 155 170
327 841 208 153 160 175
326 840 210 146 154 170
326 840 211 146 154 171
327 840 210 141 147 166
327 840 211 141 146 165
324 840 213 154 163 179
324 841 212 161 170 188
324 841 213 153 161 177
325 840 212 166 174 191
325 840 213 150 159 175
325 841 212 176 184 201
324 840 214 150 157 173
324 840 215 149 156 172
325 840 214 143 151 166
326 840 212 145 153 170
320 841 216 147 154 171
320 841 217 148 156 173
321 840 217 162 169 185
321 841 216 150 157 174
321 841 217 157 165 181
320 840 219 150 158 174
320 841 218 151 158 173
320 841 219 147 154 169
321 840 218 160 167 182
321 840 219 154 162 176
321 841 218 159 167 183
320 842 216 145 151 169
322 840 216 150 158 173
322 840 217 165 172 187
322 841 216 149 156 173
323 840 216 154 160 175
323 840 217 158 164 179
322 840 218 165 173 189
322 840 219 151 159 175
320 840 220 144 153 169
320 840 221 141 148 162
321 840 220 142 151 168
328 839 209 139 145 161
329 839 208 150 157 172
329 839 209 148 153 169
328 839 210 134 141 159
328 839 211 136 143 161
329 838 211 142 149 167
329 839 210 139 144 162
329 839 211 138 145 162
331 837 211 161 168 184
330 838 209 147 154 170
330 839 208 144 152 168
330 839 209 148 154 170
331 838 208 141 149 166
331 838 209 143 150 167
331 839 208 143 150 167
330 838 210 144 150 168
330 838 211 142 147 167
331 838 210 145 153 169
331 838 211 149 155 172
329 837 213 161 172 192
328 837 215 137 147 166
329 837 214 157 169 188
329 837 215 149 159 176
328 838 212 155 164 180
328 838 213 165 173 190
328 839 212 141 149 166
329 838 212 153 161 179
329 838 213 168 177 195
328 838 214 143 154 172
328 838 215 133 143 162
329 838 214 161 171 190
330 837 213 164 174 193
331 837 212 162 170 186
331 837 213 164 173 191
330 836 215 158 167 186
330 837 214 158 171 190
330 837 215 155 167 186
331 836 214 172 182 201
331 836 215 168 178 197
331 837 214 169 180 200
330 838 212 154 162 181
330 838 213 170 178 197
331 838 212 155 163 180
335 835 211 146 153 168
332 835 215 163 172 189
333 835 214 150 158 174
333 835 215 155 162 180
334 835 213 149 156 172
335 835 212 144 151 166
335 835 213 146 154 169
334 835 214 148 156 172
334 835 215 147 155 171
335 834 214 144 152 167
335 834 215 144 151 167
335 835 214 146 154 169
335 835 215 143 151 167
332 837 208 141 148 164
332 837 209 145 151 167
333 837 208 138 146 163
333 837 209 144 150 166
332 837 210 151 157 172
332 837 211 159 166 181
333 836 211 153 160 176
333 837 210 149 157 172
333 837 211 153 161 176
332 838 208 140 148 164
332 838 209 142 149 165
332 838 210 147 154 170
334 836 208 141 147 164
334 836 209 142 149 165
334 837 208 139 146 163
334 837 209 143 150 166
335 836 208 148 154 170
335 836 209 149 157 172
334 836 210 146 153 169
334 836 211 150 157 172
335 836 210 146 154 170
335 836 211 146 153 169
332 836 212 168 175 190
332 836 213 167 175 191
332 837 212 168 175 191
332 837 213 169 177 194
333 836 212 152 160 175
333 836 213 158 165 181
333 837 212 154 162 177
332 836 214 164 173 190
332 836 215 167 177 194
333 836 214 155 163 179
334 836 212 150 158 173
334 836 213 150 158 173
335 836 212 146 154 169
328 835 219 143 150 164
329 835 218 158 166 183
329 835 219 146 154 170
330 835 217 166 175 192
331 835 216 169 177 194
331 835 217 162 172 190
330 834 219 143 151 168
330 835 218 159 168 186
330 835 219 150 158 175
331 834 218 150 159 178
331 834 219 152 160 177
331 835 218 155 164 183
328 833 223 138 145 161
329 833 222 144 152 168
329 833 223 138 145 161
328 834 221 147 153 168
328 835 220 145 150 165
328 835 221 150 154 169
329 834 220 143 149 167
329 834 221 146 153 169
328 834 222 148 154 168
328 834 223 145 152 167
329 834 222 145 151 167
330 833 221 146 154 171
331 833 220 150 158 175
331 833 221 151 160 177
330 832 223 140 147 162
330 833 222 149 157 173
330 833 223 143 151 166
331 832 223 145 152 168
331 833 222 152 161 178
331 833 223 148 156 172
330 834 220 140 147 166
330 834 221 144 152 169
331 834 220 144 152 170
328 836 217 163 171 188
328 837 216 148 155 175
328 837 217 158 166 183
329 836 216 166 174 191
329 836 217 171 179 196
329 837 216 156 164 182
328 836 218 149 157 173
328 836 219 142 149 163
329 836 218 160 169 186
330 836 216 161 170 187
330 836 217 170 178 196
331 836 216 166 174 191
332 833 219 149 157 173
333 833 218 149 157 176
333 833 219 147 155 173
332 834 217 167 175 192
332 835 216 173 181 198
332 835 217 169 177 194
333 834 216 157 165 181
333 834 217 159 168 185
333 835 216 162 170 186
332 834 218 153 163 180
332 834 219 150 158 175
333 834 218 151 159 178
334 833 217 148 155 171
335 833 216 147 153 169
335 833 217 144 150 165
334 832 219 143 150 168
334 833 218 150 157 175
334 833 219 146 153 171
335 832 219 143 149 166
335 833 218 145 150 165
335 833 219 145 151 166
334 834 216 148 155 171
334 834 217 148 156 173
334 835 216 148 155 172
335 834 216 149 155 171
332 832 221 171 178 194
332 833 220 156 164 180
332 833 221 166 174 191
333 832 220 149 153 170
333 832 221 157 164 178
333 833 220 149 155 170
332 832 222 170 179 196
332 832 223 151 160 177
332 833 222 164 173 190
333 832 222 167 174 190
333 832 223 171 180 197
334 832 220 143 149 167
334 832 221 145 151 168
335 832 220 144 152 168
335 832 221 145 153 169
334 832 222 148 154 169
328 840 208 145 152 167
328 840 209 144 150 166
329 840 208 148 154 169
329 840 209 148 153 168
328 840 210 137 143 161
336 833 192 158 169 187
336 833 193 160 171 189
337 832 192 147 157 175
337 832 193 147 157 175
337 833 192 150 160 177
337 833 193 151 161 180
336 833 194 161 172 191
337 833 194 157 168 186
337 833 195 167 177 196
336 834 193 163 175 194
336 834 194 165 177 196
336 834 195 171 182 202
337 834 195 172 182 201
338 832 192 145 155 172
338 832 193 146 156 173
339 832 193 147 157 174
338 832 194 146 157 175
338 833 194 147 158 177
338 833 195 154 164 183
339 832 194 148 158 176
339 832 195 149 160 178
339 833 195 149 160 179
336 834 196 176 188 207
336 834 197 173 184 204
336 835 196 173 185 204
336 835 197 170 182 202
337 834 196 179 189 208
337 834 197 165 176 196
336 835 198 157 169 189
336 835 199 157 168 187
337 834 198 153 165 185
337 834 199 157 168 187
338 833 196 159 170 189
338 833 197 152 163 182
339 832 196 152 162 179
339 832 197 152 161 178
339 833 196 151 162 180
339 833 197 149 160 178
338 833 198 153 164 182
338 833 199 157 168 186
339 832 198 150 159 177
339 833 198 153 163 181
339 833 199 159 168 186
338 834 197 151 163 182
338 834 198 154 165 184
338 834 199 158 168 187
340 832 195 150 160 177
340 832 196 152 161 178
340 832 197 150 160 177
341 832 197 146 156 174
340 832 198 153 162 179
340 832 199 160 169 187
340 833 199 160 169 187
341 832 198 151 161 179
341 832 199 158 168 186
336 835 200 156 167 185
336 835 201 155 166 184
337 834 200 160 170 189
337 834 201 163 173 192
336 835 202 155 164 182
336 835 203 149 158 176
337 834 202 161 172 191
337 834 203 151 161 179
339 833 200 161 172 190
339 833 201 171 181 199
339 833 202 174 184 202
339 833 203 165 174 192
338 834 200 161 172 191
338 834 201 172 182 201
338 834 202 172 182 201
338 834 203 162 172 190
336 835 204 147 155 172
336 835 205 147 155 171
337 834 204 147 156 174
337 834 205 148 155 172
336 835 206 150 157 172
336 835 207 154 161 176
337 834 206 157 164 180
337 834 207 165 171 187
339 833 204 151 161 178
339 833 205 149 157 174
338 833 207 158 164 181
339 833 206 150 157 173
339 833 207 151 158 174
338 834 204 152 161 179
338 834 205 149 157 173
338 834 206 151 158 175
338 834 207 164 170 187
340 832 200 161 171 189
340 832 201 162 172 190
340 833 200 161 172 190
340 833 201 166 176 194
341 832 200 157 169 187
341 832 201 161 172 191
340 832 202 156 166 184
340 832 203 149 158 176
340 833 202 163 172 190
340 833 203 157 167 185
341 832 202 157 167 185
341 832 203 149 158 177
340 832 204 145 153 172
340 832 205 144 152 169
340 833 204 149 159 176
340 833 205 145 154 171
341 832 204 146 154 172
341 832 205 146 152 170
340 832 206 148 154 172
340 832 207 153 160 176
340 833 206 151 159 174
340 833 207 152 159 174
341 832 206 148 153 170
341 832 207 150 156 172
336 835 208 155 162 177
336 835 209 159 166 181
337 834 208 164 171 187
337 834 209 154 162 177
336 835 210 159 166 180
336 835 211 152 159 173
337 834 210 152 159 175
337 834 211 154 161 175
338 833 208 161 169 186
338 833 209 155 163 179
339 833 208 156 164 180
339 833 209 149 158 175
338 833 210 152 160 175
338 833 211 151 158 173
339 833 210 146 155 171
339 833 211 149 156 170
338 834 208 166 173 189
338 834 209 158 166 181
338 834 210 150 157 173
338 834 211 148 156 171
337 833 213 142 150 165
336 833 215 138 146 162
337 833 214 140 147 163
337 833 215 137 144 161
336 834 212 150 156 170
336 834 213 145 151 165
336 835 212 145 152 166
336 835 213 144 151 166
337 834 212 153 159 174
337 834 213 146 153 167
336 834 214 143 151 166
336 834 215 141 149 165
337 834 214 141 148 163
338 833 212 147 154 169
338 833 213 142 150 166
339 832 213 141 147 163
339 833 212 146 153 168
339 833 213 142 150 165
338 832 215 142 147 164
338 833 214 141 148 165
338 833 215 141 147 164
339 832 214 141 147 163
339 832 215 144 150 165
338 834 212 149 156 170
340 832 208 155 163 179
340 832 209 150 159 176
340 833 208 154 161 178
340 833 209 148 158 175
341 832 208 159 165 181
341 832 209 163 170 186
340 832 210 142 152 169
340 832 211 141 149 165
340 833 210 139 148 166
340 833 211 140 149 165
341 832 210 150 159 175
341 832 211 142 150 167
340 832 212 146 152 167
340 832 213 145 150 165
341 832 212 145 152 168
340 832 214 144 149 164
340 832 215 148 155 169
336 832 217 146 150 165
336 833 216 145 151 167
336 833 217 144 149 164
337 832 216 143 150 166
337 832 217 145 150 165
337 833 216 140 147 164
336 832 218 143 148 162
336 832 219 140 146 163
336 833 218 143 147 161
337 832 218 145 150 166
336 834 216 147 153 169
338 832 216 144 150 166
338 832 217 141 148 163
339 832 216 146 152 166
336 832 220 143 152 168
322 835 227 133 139 153
323 834 227 134 139 152
323 835 226 141 147 161
323 835 227 136 141 154
320 833 231 127 132 147
321 832 231 133 141 155
321 833 230 123 129 143
321 833 231 125 132 146
320 835 229 131 139 153
321 834 229 122 128 141
321 835 228 128 137 153
321 835 229 130 137 150
320 834 230 118 125 138
320 834 231 127 132 145
320 835 230 116 123 136
321 834 230 114 121 133
322 833 229 123 128 141
323 833 229 124 129 143
322 832 231 136 143 158
322 833 230 119 124 139
323 832 230 123 129 143
323 832 231 133 141 155
323 833 230 117 121 136
322 834 228 128 134 148
322 834 229 131 136 149
322 835 228 131 138 152
323 834 228 130 136 148
323 834 229 128 134 146
322 834 230 116 122 135
320 837 225 147 154 169
321 837 224 123 128 144
321 837 225 127 132 147
320 836 227 135 145 161
320 837 226 153 161 177
320 837 227 145 153 170
321 836 226 119 124 140
321 836 227 128 136 153
321 837 226 131 137 153
321 837 227 132 140 158
320 838 224 135 143 157
320 838 225 147 155 170
321 838 224 129 135 149
320 838 226 163 170 186
322 836 225 129 135 151
322 837 224 121 127 146
322 837 225 124 129 146
323 836 224 143 151 169
323 836 225 149 157 172
323 837 224 129 138 158
322 836 226 125 130 145
322 836 227 127 132 148
323 836 226 139 146 160
320 836 228 133 141 158
321 836 228 130 139 156
325 833 227 142 150 168
324 835 225 162 171 186
325 834 225 160 170 188
325 835 224 167 177 195
325 835 225 158 168 185
324 834 226 143 149 165
324 834 227 136 142 158
324 835 226 148 155 170
324 835 227 139 144 159
325 834 226 144 153 170
325 834 227 141 148 166
325 835 226 148 157 173
