ply
format ascii 1.0
element vertex 2018
property float x
property float y
property float z
property uchar red
property uchar green
property uchar blue
end_header
325 560 207 100 104 112
325 561 206 101 105 114
325 561 207 100 103 112
325 562 205 96 103 114
325 563 205 102 108 120
324 562 207 89 95 105
324 563 206 91 100 113
324 563 207 91 97 109
325 562 206 95 100 111
325 562 207 94 98 108
325 563 206 93 100 111
326 560 205 102 107 116
326 561 205 100 106 116
327 560 204 109 114 124
327 560 205 105 110 119
327 561 204 98 105 117
326 560 206 100 105 116
326 560 207 100 104 113
326 561 206 100 105 115
326 562 204 96 103 116
326 562 205 97 104 116
326 563 204 102 109 121
326 563 205 103 110 123
327 562 204 97 104 116
326 562 206 97 102 113
327 564 202 92 100 111
327 564 203 94 101 111
327 565 202 93 100 111
327 565 203 96 101 110
327 566 203 95 100 108
327 567 203 93 98 108
325 564 205 120 126 137
325 565 205 126 131 142
324 564 206 107 115 130
324 564 207 95 102 117
324 565 206 106 116 131
324 565 207 98 107 121
325 564 206 116 124 137
325 565 206 116 125 139
325 566 205 129 132 142
324 566 206 108 117 131
324 566 207 106 114 126
324 567 207 101 107 117
325 566 206 124 130 142
325 567 206 110 114 124
325 567 207 106 111 121
326 564 204 104 110 121
326 565 204 99 104 113
326 566 204 99 102 109
326 566 205 117 119 127
326 567 204 93 97 106
326 567 205 96 101 110
327 566 204 93 97 105
327 567 204 93 98 107
327 575 192 85 93 104
327 575 193 90 96 106
327 575 194 96 101 111
327 575 195 92 97 107
327 573 199 90 97 108
327 575 196 90 95 104
327 575 197 95 98 106
327 574 198 93 98 109
327 574 199 104 110 122
327 575 198 107 112 122
327 575 199 122 126 137
327 568 203 88 94 105
327 569 203 90 96 107
327 570 202 97 102 112
327 570 203 94 100 110
327 571 202 98 103 113
327 571 203 98 103 112
325 568 206 103 106 115
325 568 207 102 106 115
325 569 207 111 115 124
325 570 207 116 120 130
325 571 207 113 118 127
326 568 205 90 96 106
326 569 205 93 99 109
327 568 204 89 95 106
327 568 205 92 97 107
327 569 204 92 97 107
327 569 205 96 101 109
326 568 206 96 101 110
326 569 206 94 100 109
326 570 205 94 99 108
326 571 205 96 100 108
327 570 204 95 99 107
327 570 205 96 100 108
327 571 204 94 99 108
327 571 205 94 98 107
326 570 206 95 100 110
326 570 207 105 109 119
326 571 206 98 102 110
326 571 207 108 112 121
327 572 200 92 97 107
327 572 201 94 100 110
327 573 200 92 99 109
327 573 201 97 104 116
327 572 202 105 111 122
327 572 203 110 118 130
327 573 202 115 123 136
327 573 203 122 132 147
327 574 200 103 108 119
327 574 201 107 113 125
327 575 200 120 125 136
327 575 201 123 128 141
326 574 203 122 132 147
326 575 202 119 129 145
326 575 203 117 127 141
327 574 202 115 122 137
327 574 203 121 131 146
327 575 202 125 133 149
327 575 203 116 126 140
325 572 207 102 107 117
325 573 206 92 98 108
325 573 207 93 98 108
325 574 205 93 102 115
325 575 205 97 104 116
325 574 206 93 99 110
325 574 207 92 97 106
325 575 206 93 100 110
325 575 207 91 96 105
326 572 204 97 104 115
326 572 205 95 99 108
326 573 204 107 118 133
326 573 205 91 99 111
327 572 204 101 108 119
326 572 206 99 103 111
326 572 207 102 106 115
326 573 206 95 100 109
326 573 207 94 98 107
326 574 204 107 118 133
326 574 205 92 101 114
326 575 204 111 120 134
326 575 205 108 117 130
330 560 192 104 108 117
330 561 192 108 112 122
330 561 193 107 112 122
331 560 192 106 110 119
331 560 193 106 111 121
331 561 193 106 111 121
330 561 194 99 105 115
330 561 195 99 104 114
331 560 194 103 109 120
331 560 195 103 108 118
331 561 194 102 108 118
331 561 195 101 106 116
330 562 192 104 111 123
330 562 193 101 107 118
330 563 192 101 109 120
330 563 193 100 106 118
330 562 194 96 101 111
330 562 195 96 101 111
330 563 194 96 102 112
330 563 195 94 100 111
329 562 199 95 101 113
329 563 198 94 100 111
329 563 199 95 102 114
330 560 197 104 108 118
330 561 196 100 105 115
330 561 197 99 104 115
331 560 196 104 108 117
331 560 197 105 110 119
331 561 196 99 104 114
330 560 198 103 109 120
330 560 199 111 120 133
330 561 198 99 105 115
330 561 199 98 107 120
330 562 196 96 102 113
330 562 197 95 103 114
330 563 196 95 102 112
330 563 197 95 102 112
330 562 198 95 101 112
330 562 199 96 103 114
330 563 198 94 100 111
329 566 192 105 109 118
329 566 193 116 121 131
329 567 192 99 103 112
329 567 193 105 110 119
329 566 194 109 115 126
329 566 195 101 107 117
329 567 194 103 108 118
329 567 195 97 103 113
330 564 192 98 105 116
330 564 193 101 108 119
330 565 192 110 115 126
330 565 193 120 125 136
330 564 194 96 103 115
330 564 195 94 101 112
330 565 194 111 118 130
330 565 195 98 105 116
330 566 192 119 123 133
330 566 193 131 135 146
330 566 194 120 126 138
330 566 195 99 106 117
329 565 197 92 98 108
329 564 198 96 102 113
329 564 199 103 111 123
329 565 198 96 101 112
329 565 199 121 125 136
329 566 196 94 100 110
329 566 197 91 97 107
329 567 196 96 102 112
329 567 197 93 100 110
329 566 198 94 99 108
329 566 199 103 108 117
329 567 198 93 99 109
329 567 199 96 101 111
330 564 196 97 103 113
330 564 197 98 103 114
330 565 196 98 104 114
330 565 197 96 101 111
330 564 198 95 101 112
330 566 196 94 100 111
328 561 201 127 134 147
329 560 200 128 138 155
329 560 201 138 146 163
329 561 200 112 123 140
329 561 201 131 140 155
328 560 202 103 112 126
328 560 203 100 107 119
328 561 202 103 111 124
328 562 201 104 110 121
328 563 201 97 105 117
329 562 200 95 104 117
329 562 201 103 110 122
329 563 200 97 104 116
329 563 201 101 109 122
328 562 202 100 106 118
328 563 202 95 103 115
330 560 200 122 135 153
328 564 201 114 122 135
328 565 201 133 138 150
329 564 200 115 122 133
329 564 201 112 120 132
329 565 200 136 141 152
329 565 201 140 145 157
328 564 202 93 102 114
328 565 202 98 105 115
328 566 201 109 115 125
328 567 201 96 102 112
329 566 200 108 114 124
329 566 201 110 116 127
329 567 200 98 104 115
329 567 201 98 105 115
328 566 202 95 100 109
328 567 202 94 99 108
328 567 203 92 97 107
329 568 192 94 99 109
329 568 193 101 105 115
329 569 192 94 101 111
329 569 193 96 103 113
329 568 194 102 106 115
329 568 195 95 101 111
329 569 194 99 105 115
329 569 195 96 102 113
328 570 192 108 113 125
328 571 192 112 116 127
328 571 193 113 118 128
329 570 192 102 109 121
329 570 193 103 110 122
329 571 193 113 119 130
328 571 194 128 133 144
328 571 195 123 130 143
329 570 194 103 110 122
329 570 195 100 108 119
329 571 194 119 125 136
329 571 195 121 127 139
329 568 196 96 103 113
329 568 197 95 102 113
329 569 196 96 103 114
329 569 197 97 103 114
328 569 199 100 104 113
329 568 198 93 100 110
329 568 199 93 99 110
329 569 198 97 103 113
329 569 199 98 103 113
328 571 196 101 110 123
328 571 197 94 100 111
329 570 196 96 103 114
329 570 197 94 100 111
329 571 196 102 109 120
328 570 198 97 101 110
328 570 199 97 100 109
328 571 198 96 100 108
328 571 199 93 98 107
329 570 198 98 102 112
328 572 192 99 105 116
328 572 193 110 115 125
328 573 192 88 94 104
328 573 193 101 105 114
328 572 194 128 133 144
328 572 195 123 131 143
328 573 194 119 122 131
328 573 195 114 120 130
328 574 192 87 93 103
328 574 193 93 97 105
328 574 194 101 104 113
328 574 195 99 104 113
328 575 194 98 103 112
328 575 195 93 98 108
328 572 196 112 120 132
328 572 197 98 104 116
328 573 196 96 103 115
328 573 197 92 98 108
328 572 198 96 100 109
328 572 199 93 98 107
328 573 198 91 97 107
328 573 199 90 95 105
328 574 196 93 98 107
328 574 197 92 97 105
328 568 200 95 101 111
328 568 201 93 99 109
328 569 200 99 104 113
328 569 201 97 103 112
329 568 200 95 101 112
328 568 202 89 96 106
328 568 203 88 94 105
328 569 202 93 99 110
328 569 203 91 98 108
328 570 200 96 100 108
328 570 201 98 102 111
328 571 200 93 97 106
328 571 201 97 101 110
328 570 202 97 103 112
328 570 203 93 99 109
328 571 202 99 104 113
328 572 200 91 96 105
323 560 211 138 146 160
323 561 210 108 116 128
323 561 211 112 118 129
323 562 209 97 102 112
323 563 209 93 99 109
322 562 211 99 105 115
322 563 211 99 104 113
323 562 210 98 103 114
323 562 211 97 102 113
323 563 210 96 100 110
321 561 215 94 99 109
321 563 213 107 112 123
321 562 214 93 99 109
321 562 215 96 101 111
321 563 214 94 100 111
321 563 215 94 101 111
322 561 213 104 109 119
323 560 212 140 146 159
323 560 213 113 119 131
323 561 212 124 129 140
323 561 213 120 126 137
322 560 214 99 104 112
322 560 215 96 101 109
322 561 214 93 98 108
322 561 215 93 98 108
323 560 214 100 105 115
322 562 212 97 103 113
322 562 213 97 102 112
322 563 212 101 106 115
322 563 213 99 105 115
323 562 212 99 104 113
323 564 208 95 101 111
323 564 209 93 98 108
323 565 208 89 95 106
323 565 209 92 98 108
322 564 210 98 103 112
322 564 211 100 104 113
322 565 210 97 101 110
322 565 211 97 101 110
323 564 210 94 98 108
323 565 210 94 98 108
323 566 208 90 96 106
323 566 209 91 97 106
323 567 208 91 97 108
323 567 209 92 98 108
322 566 210 91 95 103
322 566 211 91 96 105
322 567 210 91 94 102
322 567 211 91 96 105
323 567 210 92 96 104
321 564 212 111 114 123
321 564 213 129 133 144
321 565 212 109 113 121
321 565 213 127 133 144
320 564 215 106 112 124
320 565 214 113 120 132
320 565 215 107 113 124
321 564 214 121 127 139
321 564 215 104 111 122
321 565 214 124 131 144
320 567 213 96 101 110
321 566 212 95 100 109
321 566 213 101 106 116
321 567 212 91 97 107
321 567 213 95 99 108
320 566 214 91 98 109
320 566 215 92 98 109
320 567 214 93 98 107
320 567 215 94 98 107
321 566 214 98 106 119
322 564 212 100 104 113
322 565 212 94 99 109
322 566 212 87 93 103
324 560 209 136 143 157
324 561 208 95 101 111
324 561 209 106 114 128
325 560 208 100 104 114
325 560 209 116 121 134
325 561 208 95 101 113
324 560 210 140 149 164
324 560 211 133 142 157
324 561 210 130 137 151
324 562 208 95 101 111
324 562 209 98 103 114
324 563 208 94 100 111
324 562 210 108 114 126
324 564 208 93 100 111
324 565 208 88 95 107
324 566 208 93 99 109
324 567 208 96 102 112
321 560 216 98 103 112
321 560 217 97 102 112
321 561 216 97 102 111
321 561 217 97 101 111
320 561 219 95 100 110
321 560 218 95 101 112
321 560 219 93 100 112
321 561 218 96 101 110
321 561 219 95 101 113
320 562 216 92 98 108
320 562 217 96 100 109
320 563 216 94 100 111
320 563 217 93 98 109
321 562 216 96 100 110
321 562 217 99 103 111
321 563 216 95 101 111
320 562 218 100 103 111
320 562 219 103 108 117
320 563 218 105 111 120
320 563 219 123 127 137
322 560 216 98 103 112
320 560 220 110 116 128
320 560 221 109 116 128
320 561 220 96 102 114
320 561 221 95 101 111
321 560 220 109 116 129
320 560 222 92 99 110
320 560 223 92 98 108
320 561 222 90 96 106
320 561 223 90 96 105
320 562 220 100 107 118
320 562 221 91 98 109
320 563 220 117 123 134
320 564 216 95 102 113
320 564 217 95 101 112
320 565 216 94 101 111
320 565 217 95 101 111
320 564 218 99 105 116
320 566 216 89 96 107
320 566 217 90 96 107
320 567 216 92 97 107
323 568 208 93 99 110
323 568 209 94 100 111
323 569 209 102 108 118
322 568 210 91 95 102
322 568 211 92 97 107
322 569 211 97 102 112
323 568 210 90 95 103
323 569 210 93 98 106
322 570 211 104 110 120
322 571 211 97 103 113
323 570 210 91 96 105
323 570 211 88 94 104
323 571 210 87 93 102
323 571 211 88 94 104
320 568 213 96 103 114
320 569 213 121 127 138
321 568 212 90 98 109
321 568 213 95 102 113
321 569 212 111 118 129
321 569 213 126 132 143
320 568 214 92 98 108
320 568 215 96 100 109
320 569 214 101 108 120
320 569 215 102 109 120
321 570 212 126 131 141
321 570 213 135 140 151
321 571 213 126 131 142
320 570 214 118 126 139
320 570 215 114 122 134
320 571 214 115 124 138
320 571 215 114 122 135
321 571 214 124 131 143
322 570 212 124 129 140
322 571 212 111 117 128
323 572 210 89 94 104
323 572 211 88 94 104
323 573 211 91 95 104
321 572 213 97 104 116
321 573 213 90 96 106
320 572 214 103 111 124
320 572 215 97 106 118
320 573 215 90 97 107
321 572 214 99 107 119
321 573 214 89 96 106
321 573 215 88 94 103
320 574 215 88 93 102
321 574 214 90 94 103
321 574 215 90 94 102
321 575 214 89 94 101
321 575 215 89 93 100
322 572 212 91 98 110
322 572 213 96 104 115
322 573 212 89 95 105
322 573 213 91 96 106
323 572 212 88 95 106
323 573 212 90 95 104
322 573 214 92 97 106
322 574 213 91 96 105
322 575 213 92 97 105
323 574 212 90 95 105
323 574 213 90 97 106
323 575 212 92 97 106
323 575 213 94 99 109
322 574 214 91 95 104
322 575 214 90 95 103
324 568 208 100 106 117
324 569 208 120 127 139
324 569 209 113 120 133
325 569 208 119 124 136
324 570 208 123 131 144
324 570 209 109 117 130
324 571 209 100 108 121
325 570 208 123 130 143
325 571 208 112 120 132
325 571 209 109 117 131
324 570 210 98 105 116
324 571 210 91 97 107
325 572 208 104 111 123
325 572 209 97 104 115
325 573 208 91 98 109
325 573 209 91 98 108
324 572 210 91 97 107
324 573 210 92 97 106
324 573 211 93 97 105
325 573 210 91 96 105
325 574 208 89 95 104
325 574 209 91 96 105
325 575 208 90 95 105
325 575 209 90 95 105
324 574 210 97 100 107
324 574 211 94 98 105
324 575 210 104 106 112
324 575 211 99 101 108
325 574 210 94 98 107
325 575 210 96 100 108
320 568 216 95 99 108
320 569 216 98 104 114
320 572 216 94 100 111
320 573 216 91 96 105
320 574 216 91 95 102
320 575 216 91 94 101
320 575 217 97 100 108
323 547 227 113 117 126
321 547 231 105 108 115
323 544 229 100 105 115
323 545 228 118 124 135
323 545 229 107 114 126
322 544 231 98 103 113
322 545 230 99 105 116
322 545 231 100 106 116
323 544 230 100 105 114
323 544 231 99 103 112
323 545 230 99 106 118
322 547 229 120 130 144
323 546 228 130 136 147
323 546 229 127 136 150
323 547 228 138 142 153
323 547 229 126 134 148
322 546 230 106 114 126
322 546 231 103 107 116
322 547 230 109 117 130
322 547 231 102 104 111
323 546 230 114 123 138
322 549 227 99 106 119
323 548 226 99 104 114
323 548 227 106 111 121
323 549 226 102 106 115
323 549 227 100 106 116
323 550 225 97 103 113
323 551 224 99 104 114
323 551 225 97 102 113
322 550 227 98 105 115
322 551 226 98 103 114
322 551 227 99 105 115
323 550 226 103 108 117
323 550 227 101 106 116
323 551 226 99 105 115
320 549 231 101 107 118
321 548 230 111 119 132
321 548 231 102 107 116
321 549 230 100 110 124
321 549 231 102 108 119
321 550 229 106 115 129
321 551 228 102 106 115
321 551 229 121 126 136
320 550 231 106 114 126
320 551 230 134 141 155
320 551 231 110 120 134
321 550 230 109 117 130
321 550 231 108 115 126
321 551 230 132 138 150
322 548 228 127 135 148
322 548 229 124 133 148
322 549 228 102 110 123
322 549 229 104 115 130
323 548 228 124 129 140
322 548 230 115 124 139
322 549 230 103 115 132
322 550 228 100 106 117
322 550 229 105 113 125
322 551 228 100 103 113
325 544 224 97 104 116
325 544 225 100 106 117
325 545 224 100 107 118
325 545 225 98 104 115
324 544 227 100 106 117
324 545 226 98 106 117
324 545 227 107 113 124
325 544 226 97 104 115
325 544 227 98 105 117
325 545 226 98 105 116
324 547 225 105 111 121
325 546 224 104 110 121
325 546 225 102 108 119
325 547 224 102 109 120
325 547 225 104 110 121
324 546 226 102 110 121
324 546 227 107 112 123
324 547 226 102 107 118
324 547 227 103 108 118
325 546 226 103 110 121
326 544 224 97 106 120
324 544 228 100 105 114
324 544 229 100 105 114
324 545 228 112 117 127
324 546 228 119 124 135
324 548 224 97 104 115
324 548 225 101 107 118
324 549 224 96 102 113
324 549 225 98 104 115
325 548 224 100 106 118
324 548 226 100 105 115
324 548 227 100 105 115
324 549 226 99 105 115
324 550 224 97 102 112
324 550 225 97 103 113
324 551 224 99 103 111
321 544 233 104 110 121
321 545 232 102 106 115
321 545 233 100 105 115
320 544 235 99 105 117
320 545 234 100 106 117
320 545 235 100 107 119
321 544 234 101 108 119
321 544 235 99 106 118
321 545 234 100 106 117
320 547 233 100 106 117
321 546 232 102 105 114
321 546 233 102 106 116
321 547 232 102 106 114
321 547 233 100 105 115
320 546 234 99 104 115
320 546 235 98 106 117
320 547 234 99 105 116
322 544 232 100 105 114
322 544 233 102 107 117
322 545 232 103 107 117
322 546 232 103 106 114
320 544 236 98 105 116
320 545 236 102 109 121
320 548 232 102 108 118
320 548 233 99 105 117
320 549 232 101 106 116
320 549 233 101 107 117
321 548 232 102 107 117
320 548 234 101 106 117
320 550 232 99 105 116
320 550 233 99 105 115
320 551 232 96 105 118
321 552 227 102 104 112
321 553 227 101 105 115
321 554 225 123 130 143
321 555 224 126 134 148
321 555 225 124 130 144
320 554 227 95 103 114
320 555 227 93 100 112
321 554 226 102 107 118
321 554 227 99 104 114
321 555 226 104 109 120
321 555 227 98 103 112
322 552 225 97 102 113
322 553 224 114 120 131
322 553 225 108 114 125
323 552 224 97 104 116
323 552 225 96 102 113
323 553 224 106 113 124
322 552 226 100 104 114
322 552 227 101 105 114
322 553 226 101 106 116
322 553 227 101 105 113
322 554 224 138 144 157
322 554 225 126 134 147
322 555 224 132 140 154
322 554 226 102 109 120
320 552 229 126 132 143
320 553 228 107 114 125
320 553 229 115 121 132
321 552 228 107 111 120
321 552 229 128 132 143
321 553 228 108 114 124
320 552 230 118 126 139
320 552 231 108 117 131
320 553 230 109 117 130
321 552 230 136 142 154
320 554 228 100 107 118
320 554 229 101 107 117
320 555 228 95 102 113
320 555 229 95 100 110
320 554 230 109 114 126
320 556 225 121 129 142
320 557 224 124 134 149
320 557 225 118 127 141
321 556 224 122 130 144
321 556 225 118 126 140
321 557 224 128 137 153
320 556 226 102 110 123
320 556 227 90 98 111
320 557 226 107 114 127
320 557 227 94 101 113
321 556 226 107 114 127
320 558 224 123 130 145
320 558 225 137 142 154
320 559 224 108 114 126
320 559 225 130 134 145
320 558 226 112 118 129
320 556 228 91 99 112
320 560 224 93 99 108
320 576 171 105 111 121
320 576 172 106 112 122
320 576 173 104 111 122
320 577 172 101 107 118
320 577 173 100 107 117
321 576 173 105 112 123
320 576 174 104 110 121
320 577 174 102 108 119
320 577 175 102 108 119
321 576 174 106 112 124
321 576 175 108 115 127
321 577 175 104 110 122
320 578 173 96 102 112
320 578 174 99 105 115
320 578 175 100 106 116
320 579 174 100 105 115
320 579 175 100 105 115
320 580 175 99 104 113
321 576 176 112 120 132
321 577 176 111 118 130
321 577 177 115 122 134
320 578 176 101 107 117
320 579 176 99 105 115
321 578 176 104 111 122
321 578 177 109 116 128
321 579 176 100 107 118
321 579 177 103 110 121
321 578 178 110 118 130
321 579 178 107 114 125
321 579 179 106 113 125
322 576 176 115 123 136
322 576 177 114 122 136
322 577 177 114 122 134
322 576 178 113 121 134
322 576 179 110 119 132
322 577 178 110 118 130
322 577 179 106 114 127
323 576 179 115 123 135
322 578 178 108 116 128
322 578 179 104 112 125
322 579 179 106 113 124
322 577 180 98 106 119
323 576 180 118 125 137
323 576 181 120 127 139
323 577 180 107 115 127
323 577 181 114 122 134
323 577 182 119 126 138
322 578 180 99 107 119
322 579 180 100 107 119
322 579 181 96 103 114
323 578 180 95 104 117
323 578 181 97 106 119
323 579 181 93 101 112
323 578 182 100 108 120
323 579 182 93 101 111
323 579 183 93 100 111
320 580 176 98 103 113
320 580 177 96 102 112
320 581 176 100 105 114
320 581 177 101 106 116
321 580 177 96 102 113
320 580 178 95 101 111
320 581 178 99 105 116
320 581 179 98 104 114
321 580 178 95 102 112
321 580 179 95 102 112
321 581 179 94 100 110
320 582 177 110 115 125
320 582 178 112 117 127
320 582 179 108 113 123
320 583 178 104 109 119
320 583 179 106 111 121
321 582 179 100 106 116
321 580 180 97 103 113
321 581 180 94 99 110
321 582 180 97 103 113
321 582 181 94 100 111
321 583 180 100 106 116
321 583 181 94 99 109
321 583 182 92 98 109
322 580 180 101 107 117
322 580 181 98 104 115
322 581 180 94 100 111
322 581 181 95 101 111
323 580 181 98 104 115
322 580 182 99 104 114
322 581 182 98 104 114
323 580 182 98 103 113
323 580 183 97 102 111
323 581 183 98 103 113
322 582 181 93 99 109
322 582 182 94 100 110
322 582 183 97 103 114
322 583 182 91 98 109
322 583 183 96 103 113
323 582 183 100 107 117
323 583 183 103 110 121
324 576 181 118 125 136
324 576 182 114 121 132
324 576 183 108 115 126
324 577 182 119 125 136
324 577 183 114 120 131
325 576 183 107 114 126
324 578 182 113 120 132
324 578 183 106 112 124
324 579 183 96 102 113
324 580 183 94 99 109
323 581 184 96 101 110
323 582 184 96 103 114
323 582 185 89 98 110
323 583 184 100 108 120
323 583 185 101 109 122
324 577 184 106 113 124
325 576 184 100 107 119
325 576 185 96 103 114
325 577 184 100 107 118
325 577 185 98 104 115
325 577 186 99 104 114
324 578 184 101 108 120
324 579 184 95 102 112
324 579 185 97 103 113
325 578 184 96 103 115
325 578 185 97 104 115
325 579 185 97 103 113
325 578 186 100 107 117
325 578 187 110 116 126
325 579 186 101 106 116
325 579 187 113 118 128
326 576 185 98 104 115
326 576 186 100 106 116
326 576 187 106 109 118
326 577 186 100 105 115
326 577 187 107 111 120
326 578 187 108 113 124
326 579 187 121 126 136
326 576 188 111 113 121
326 577 188 117 120 128
326 577 189 118 122 132
327 576 188 107 110 117
327 576 189 108 111 119
327 577 189 116 119 128
326 577 190 115 121 132
327 576 190 107 111 121
327 576 191 100 107 119
327 577 190 112 117 127
327 577 191 103 109 120
326 578 188 116 121 132
326 578 189 119 125 137
326 579 188 126 130 141
326 579 189 127 133 145
326 578 190 118 125 137
326 578 191 113 119 130
326 579 190 127 134 147
326 579 191 114 120 132
327 578 191 107 113 125
324 580 184 94 99 108
324 580 185 94 99 109
324 581 184 94 100 110
324 581 185 95 101 111
324 580 186 95 100 109
324 581 186 96 102 112
324 581 187 99 104 114
325 580 186 95 100 109
325 580 187 101 106 115
325 581 187 99 104 114
324 582 185 91 98 110
324 583 185 96 105 117
324 582 186 91 99 110
324 582 187 94 101 112
324 583 186 97 105 117
324 583 187 95 103 115
325 582 187 99 106 117
325 580 188 114 118 128
325 581 188 102 108 118
325 581 189 102 108 119
325 581 190 98 105 116
324 583 188 95 104 117
325 582 188 101 109 121
325 582 189 99 107 119
325 583 188 98 106 119
325 583 189 96 104 116
325 582 190 98 106 118
325 583 190 94 103 115
325 583 191 93 102 114
326 580 189 116 122 133
326 581 189 105 111 122
326 580 190 113 119 131
326 580 191 104 110 121
326 581 190 101 107 118
326 581 191 99 105 115
326 582 190 99 106 118
326 582 191 97 103 114
320 584 178 95 100 110
320 584 179 97 103 112
320 585 179 94 99 109
320 586 179 93 99 108
320 584 180 96 101 111
320 585 180 93 99 108
320 585 181 93 98 107
321 584 180 95 101 111
321 584 181 93 98 108
321 585 181 92 98 107
321 584 182 91 96 106
321 585 182 89 94 104
321 585 183 87 92 102
320 586 180 92 98 107
320 586 181 90 96 105
320 587 180 92 97 107
320 587 181 87 93 102
320 587 182 87 93 102
321 586 182 87 93 102
321 586 183 88 93 102
321 587 182 87 93 102
321 587 183 85 91 101
322 584 182 91 97 107
322 584 183 96 102 113
322 585 183 89 95 104
322 586 183 90 95 104
320 588 180 92 97 106
320 588 181 89 94 103
320 589 181 91 96 105
320 588 182 86 92 102
320 588 183 84 90 99
320 589 182 87 92 102
320 589 183 85 91 100
321 588 183 85 90 100
321 589 183 85 91 100
320 590 181 96 102 112
320 591 181 103 109 119
320 590 182 92 98 108
320 590 183 88 94 104
320 591 182 105 111 122
320 591 183 102 108 119
321 590 183 85 92 102
321 591 183 93 100 110
321 587 184 87 93 102
322 584 184 104 111 122
322 585 184 97 103 114
323 584 184 102 110 122
323 584 185 105 113 126
323 585 185 104 112 124
323 584 186 102 110 122
323 585 186 103 110 122
323 585 187 97 105 116
322 586 184 92 97 107
322 586 185 93 99 109
322 587 184 89 95 104
322 587 185 92 98 107
323 586 185 96 102 113
322 587 186 93 99 109
323 586 186 96 103 113
323 586 187 94 102 112
323 587 186 94 100 111
323 587 187 93 100 110
323 587 188 96 101 110
323 587 189 96 101 111
321 588 184 88 93 103
321 589 184 89 94 103
321 589 185 92 97 105
321 590 184 85 91 100
321 590 185 88 93 102
321 591 184 92 98 107
321 591 185 86 92 101
322 588 184 89 95 104
322 588 185 92 97 107
322 589 185 94 99 108
322 588 186 98 103 113
322 589 186 101 107 116
323 588 186 100 106 115
323 588 187 103 109 119
323 589 187 108 114 124
322 590 185 90 95 104
322 590 186 95 101 110
322 590 187 101 107 117
322 591 186 85 91 101
322 591 187 89 95 105
323 590 187 102 108 118
323 588 188 99 105 115
323 588 189 97 102 112
323 589 188 107 113 123
323 589 189 102 107 117
323 588 190 101 105 113
323 589 190 101 105 113
323 589 191 101 105 114
322 591 188 87 94 104
323 590 188 103 108 119
323 590 189 99 104 114
323 591 188 95 101 111
323 591 189 93 98 108
323 590 190 96 101 110
323 590 191 93 98 106
323 591 190 91 96 106
323 591 191 88 92 101
324 584 186 101 108 120
324 584 187 96 103 114
324 585 187 95 102 113
324 586 187 90 98 110
324 584 188 97 104 116
324 584 189 101 107 117
324 585 188 94 100 111
324 585 189 97 102 112
325 584 189 99 105 116
324 585 190 97 103 113
325 584 190 99 105 116
325 584 191 95 103 115
325 585 190 101 106 116
325 585 191 94 101 111
324 586 188 93 99 108
324 586 189 95 100 110
324 587 189 101 105 115
324 586 190 97 102 112
324 586 191 94 99 109
324 587 190 102 107 116
324 587 191 99 103 112
324 588 190 104 107 115
324 588 191 104 108 116
324 589 191 105 108 116
320 592 181 93 101 112
320 593 181 94 101 112
320 592 182 96 103 114
320 592 183 97 104 114
320 593 182 94 102 112
320 593 183 92 99 109
321 592 183 96 102 112
320 594 180 88 96 107
320 594 181 90 97 108
320 595 180 91 98 108
320 595 181 89 96 106
320 594 182 93 100 111
320 594 183 93 100 111
320 595 182 93 100 111
320 595 183 97 104 115
321 595 183 99 105 116
320 598 179 82 89 99
320 599 179 80 87 97
320 596 180 93 99 109
320 596 181 88 94 104
320 597 180 94 100 109
320 597 181 89 95 104
320 596 182 86 93 104
320 596 183 86 93 104
320 597 182 84 90 100
320 597 183 81 88 98
321 596 183 89 96 106
321 597 183 83 90 100
320 598 180 85 92 101
320 598 181 85 91 100
320 599 180 80 87 96
320 599 181 80 87 96
320 598 182 84 89 99
320 598 183 84 90 99
320 599 182 82 89 98
320 599 183 83 89 98
321 598 183 85 91 100
321 599 183 84 89 98
321 592 184 95 100 110
321 592 185 90 95 104
321 593 184 91 97 107
321 593 185 89 94 103
321 593 186 83 89 97
321 594 184 92 98 108
321 594 185 89 95 104
321 595 184 99 105 115
321 595 185 91 97 107
321 595 186 90 95 105
322 592 186 83 88 97
322 592 187 85 91 100
322 593 186 82 88 96
322 593 187 84 90 99
322 594 186 84 90 99
322 594 187 82 89 99
322 595 186 88 94 103
322 595 187 87 94 104
322 592 188 88 94 103
322 592 189 90 96 105
322 593 188 87 93 102
322 593 189 91 97 106
323 592 189 91 97 106
323 593 189 90 96 106
322 593 191 90 95 103
323 592 190 92 97 107
323 592 191 89 93 101
323 593 190 92 97 106
323 593 191 90 94 102
322 594 188 86 93 103
322 594 189 90 97 107
322 595 188 89 97 107
322 595 189 94 102 113
323 594 189 91 98 109
323 595 189 97 105 116
322 595 190 101 109 121
322 595 191 90 98 109
323 594 190 94 101 111
323 594 191 93 99 108
323 595 190 102 110 121
323 595 191 98 105 117
321 596 184 93 99 109
321 596 185 90 96 106
321 597 184 85 91 101
321 597 185 87 92 101
321 596 186 88 94 103
321 597 186 88 93 102
321 598 184 84 90 99
321 598 185 85 91 100
321 599 184 83 89 98
321 599 185 82 88 98
321 598 186 87 92 101
321 598 187 87 92 101
321 599 186 84 89 98
321 599 187 84 90 99
322 596 186 88 94 104
322 596 187 89 95 104
322 597 186 87 93 102
322 597 187 88 94 103
322 598 187 90 95 104
322 599 187 86 92 101
321 599 188 88 95 104
322 596 188 93 100 110
322 596 189 98 106 117
322 597 188 94 100 110
322 597 189 100 106 117
322 596 190 102 110 123
322 596 191 95 104 116
322 597 190 104 112 124
322 597 191 104 111 123
323 596 190 101 110 122
322 598 188 92 98 108
322 598 189 95 103 114
322 599 188 89 96 106
322 599 189 92 99 110
322 598 190 98 106 118
322 598 191 99 106 116
322 599 190 92 100 111
322 599 191 90 97 108
320 600 178 86 93 102
320 600 179 86 93 103
320 601 178 93 98 108
320 601 179 97 103 113
320 602 177 87 93 102
320 603 177 87 93 102
320 602 178 86 92 101
320 602 179 87 93 103
320 603 178 85 91 100
320 603 179 84 90 100
320 600 180 87 93 102
320 600 181 86 92 101
320 601 180 95 101 109
320 601 181 89 95 104
320 600 182 84 90 99
320 600 183 85 90 99
320 601 182 85 91 101
320 601 183 84 90 99
321 600 183 85 91 100
321 601 182 85 91 100
321 601 183 85 91 100
320 602 180 86 92 101
320 602 181 87 92 101
320 603 180 84 89 98
320 603 181 85 90 99
320 602 182 86 92 101
320 602 183 86 91 100
320 603 182 84 90 99
320 603 183 85 90 99
321 602 182 86 92 101
321 602 183 86 92 100
321 603 182 84 90 100
320 604 177 86 92 102
320 605 177 86 93 102
320 604 178 86 92 101
320 604 179 86 92 101
320 605 178 86 93 102
320 605 179 86 92 102
320 606 179 87 93 103
320 604 180 85 90 100
320 604 181 85 90 99
320 605 180 85 91 100
320 605 181 85 91 100
320 604 182 84 90 99
320 604 183 85 91 100
320 605 182 85 91 100
320 605 183 86 91 100
320 606 180 87 93 103
320 606 181 86 92 101
320 607 180 86 92 102
320 607 181 86 91 101
320 606 182 87 92 101
320 606 183 88 93 102
320 607 182 86 91 100
320 607 183 87 92 101
321 600 184 86 91 100
321 600 185 85 91 100
321 601 184 87 92 101
321 601 185 89 95 105
321 600 186 84 90 99
321 600 187 85 91 101
321 601 186 90 96 106
321 601 187 91 97 107
320 603 184 86 91 101
321 602 184 87 93 102
321 602 185 94 100 109
321 603 184 87 93 102
321 603 185 93 99 109
321 602 186 98 104 114
321 602 187 98 104 114
321 603 186 99 105 115
321 603 187 100 106 115
321 600 188 87 94 103
321 600 189 89 95 106
321 601 188 90 96 105
321 601 189 89 96 106
321 600 190 87 94 105
321 600 191 87 95 105
321 601 190 89 95 106
321 601 191 88 94 104
321 602 188 93 99 109
321 602 189 90 96 106
321 603 188 94 100 109
321 603 189 89 95 105
321 602 190 89 95 105
321 602 191 86 92 101
321 603 190 86 92 101
321 603 191 85 91 100
322 600 188 87 94 104
322 600 189 88 95 105
322 600 190 88 95 106
322 600 191 87 94 104
322 602 190 88 94 104
322 602 191 88 93 103
320 604 184 85 91 101
320 604 185 86 93 102
320 605 184 85 91 101
320 605 185 85 91 101
321 604 184 85 91 101
321 604 185 88 94 104
321 605 185 84 91 101
321 604 186 91 97 107
321 604 187 92 98 107
321 605 186 85 92 102
321 605 187 87 92 101
320 606 184 86 92 102
320 606 185 85 91 101
320 607 184 87 92 101
320 607 185 85 91 101
321 606 185 86 92 102
320 606 186 85 91 101
321 606 186 85 92 101
321 606 187 87 93 102
321 607 186 85 91 101
321 607 187 87 94 103
321 604 188 89 95 104
321 604 189 87 93 102
321 605 188 87 93 102
321 605 189 87 93 103
321 604 190 86 93 102
321 604 191 87 93 102
321 605 190 86 92 101
321 605 191 85 90 99
321 606 188 91 96 105
321 606 189 94 100 109
321 607 188 92 98 108
321 607 189 97 102 112
321 606 190 90 96 105
321 606 191 84 90 100
321 607 190 92 97 107
321 607 191 86 92 101
320 608 180 86 92 101
320 608 181 86 92 101
320 609 180 83 89 99
320 609 181 83 89 99
320 608 182 85 90 99
320 608 183 84 90 99
320 609 182 84 90 100
320 609 183 88 95 105
320 610 181 85 92 102
320 611 181 87 94 105
320 610 182 89 96 106
320 610 183 94 102 113
320 611 182 89 97 108
320 611 183 88 97 109
320 612 182 94 102 113
320 612 183 91 100 112
320 613 183 87 96 108
320 608 184 84 90 99
320 608 185 84 91 100
320 609 184 91 98 107
320 609 185 86 93 102
321 608 185 86 92 101
321 609 185 85 92 101
321 608 186 84 90 99
321 608 187 87 92 102
321 609 186 83 88 97
321 609 187 82 87 96
320 610 184 94 101 111
320 610 185 90 96 106
320 611 184 88 96 107
320 611 185 87 94 105
320 610 186 84 90 100
320 611 186 82 89 98
320 611 187 79 85 94
321 610 186 82 88 97
321 610 187 80 85 93
321 611 187 79 84 92
321 608 188 91 96 106
321 608 189 93 99 108
321 609 188 83 88 96
321 609 189 84 90 99
321 608 190 88 94 103
321 608 191 83 90 99
321 609 190 82 88 96
321 609 191 82 87 95
321 610 188 81 85 93
321 610 189 83 88 96
321 611 188 79 84 91
321 611 189 81 86 94
321 610 190 82 88 96
321 610 191 83 88 96
321 611 190 81 86 95
321 611 191 80 86 95
320 612 184 89 98 109
320 612 185 89 97 108
320 613 184 88 96 108
320 613 185 91 98 109
320 612 186 81 89 99
320 612 187 78 85 94
320 613 186 89 96 106
320 613 187 82 88 97
321 612 187 76 82 91
320 614 184 89 97 108
320 614 185 93 100 110
320 615 184 84 91 102
320 615 185 84 91 100
320 614 186 94 100 109
320 614 187 85 91 100
320 615 186 83 89 98
320 615 187 79 85 94
320 612 188 78 83 91
320 613 188 80 85 93
320 613 189 79 84 92
321 612 188 78 83 91
321 612 189 79 84 92
321 613 189 78 83 91
321 612 190 77 83 92
321 612 191 77 84 94
321 613 190 81 87 97
321 613 191 88 94 104
320 614 188 81 86 95
320 614 189 80 85 94
320 615 188 77 82 91
320 615 189 77 83 92
321 614 189 80 85 94
320 615 190 80 87 96
321 614 190 83 89 98
321 614 191 91 98 107
321 615 190 82 89 98
321 615 191 92 99 109
320 616 185 77 83 92
320 616 186 78 84 92
320 616 187 78 83 91
320 617 187 80 85 93
320 618 187 78 84 92
320 616 188 79 85 93
320 616 189 79 85 93
320 617 188 80 86 94
320 617 189 80 86 94
320 616 190 80 86 96
320 617 190 79 85 94
321 616 190 84 90 100
321 616 191 83 91 101
321 617 191 81 87 96
320 618 188 80 86 95
320 618 189 79 84 93
320 619 188 84 89 98
320 619 189 87 91 99
320 618 190 80 84 92
320 618 191 80 85 93
320 619 190 84 88 95
320 619 191 80 84 91
321 618 191 80 85 94
321 619 191 77 82 89
320 620 189 95 98 106
320 620 190 89 92 99
320 620 191 83 88 95
320 621 190 89 92 99
320 621 191 83 87 94
320 622 191 78 83 91
327 576 192 85 93 104
327 576 193 89 95 105
327 577 192 91 97 107
327 577 193 92 96 104
327 576 194 96 100 109
327 576 195 92 97 106
327 577 194 99 101 108
327 577 195 95 98 106
326 578 192 102 108 117
326 578 193 107 111 120
326 579 192 101 107 118
326 579 193 106 111 122
327 578 192 101 105 114
327 578 193 103 106 114
326 578 194 104 107 116
326 578 195 93 97 105
326 579 194 103 109 119
326 579 195 91 97 107
327 578 194 106 108 115
327 578 195 99 101 107
325 579 197 86 90 98
325 579 198 85 90 99
325 579 199 94 99 110
326 577 196 90 94 103
326 577 197 90 94 102
327 576 196 89 94 104
327 576 197 98 102 110
327 577 196 90 96 105
326 576 199 124 129 139
326 577 198 99 104 113
326 577 199 116 121 132
327 576 198 118 122 130
327 576 199 125 129 139
326 578 196 86 91 101
326 578 197 84 90 100
326 579 196 85 90 100
326 579 197 85 89 99
326 578 198 94 98 107
326 578 199 108 112 123
326 579 198 89 93 102
326 579 199 102 106 117
325 581 192 99 104 113
325 581 193 95 100 111
325 580 194 98 104 115
325 580 195 93 99 109
325 581 194 98 104 115
325 581 195 92 98 108
325 582 192 85 94 107
325 582 193 82 91 103
325 583 192 87 98 111
325 583 193 88 98 111
325 582 194 90 97 108
325 582 195 86 93 104
325 583 194 100 107 119
325 583 195 92 100 111
326 580 192 100 106 116
326 580 193 111 116 126
326 581 192 98 104 113
326 581 193 109 114 124
326 580 194 107 113 124
326 580 195 96 102 113
326 582 192 91 98 109
326 582 193 82 90 101
325 580 196 85 90 98
325 580 197 82 87 95
325 581 196 87 92 100
325 581 197 86 90 98
325 580 198 82 88 97
325 580 199 87 93 103
325 581 198 86 91 99
325 581 199 86 91 100
325 582 196 83 88 97
325 582 197 84 88 96
325 583 196 81 87 97
325 583 197 81 85 94
324 583 198 101 104 113
324 583 199 111 115 125
325 582 198 89 93 101
325 582 199 94 98 108
325 583 198 102 106 115
325 583 199 110 114 123
326 580 196 88 93 101
325 579 200 112 116 127
325 579 201 105 112 124
325 578 203 90 101 118
325 579 202 93 102 115
325 579 203 85 95 108
326 576 200 120 126 139
326 576 201 121 128 141
326 577 200 115 122 134
326 577 201 110 118 131
327 576 200 121 127 138
327 576 201 122 129 143
326 576 202 116 126 142
326 576 203 114 124 138
326 577 202 106 115 128
326 577 203 109 117 132
326 578 200 115 121 133
326 578 201 111 119 132
326 579 200 117 122 133
326 579 201 113 120 132
326 578 202 98 109 125
326 578 203 92 103 119
326 579 202 104 113 127
325 576 205 106 113 124
325 577 204 114 120 132
325 577 205 107 113 123
325 576 206 95 101 110
325 576 207 92 98 107
325 577 206 96 101 110
325 577 207 92 98 107
325 578 204 98 106 119
325 578 205 102 108 118
325 579 204 91 98 109
325 579 205 92 98 107
325 578 206 90 96 106
325 578 207 91 96 106
325 579 206 89 94 104
325 579 207 90 95 104
326 576 204 115 123 136
326 576 205 112 120 132
326 577 204 117 124 137
325 580 200 95 101 110
325 580 201 92 99 110
325 581 200 86 92 102
325 581 201 86 94 105
325 580 202 89 96 107
325 580 203 88 93 102
325 581 202 86 93 103
325 581 203 86 91 100
324 583 200 119 123 133
324 583 201 107 112 121
325 582 200 96 102 112
325 582 201 93 99 110
325 583 200 115 119 129
324 582 203 87 92 101
324 583 202 95 100 110
324 583 203 87 91 100
325 582 202 90 96 107
325 582 203 85 91 100
325 580 204 89 93 102
325 580 205 89 94 103
325 581 204 88 92 101
325 581 205 90 95 103
324 581 206 91 95 103
324 581 207 87 92 101
325 580 206 89 93 102
325 580 207 90 95 103
325 581 206 90 94 101
325 581 207 89 93 102
324 582 204 91 95 103
324 582 205 97 100 108
324 583 204 88 92 100
324 583 205 97 100 108
325 582 204 87 91 100
324 582 206 96 100 108
324 582 207 91 96 104
324 583 206 104 107 116
324 583 207 100 105 114
323 589 192 95 100 108
323 589 193 101 105 113
323 589 194 111 115 123
323 589 195 113 119 130
323 590 192 87 92 101
323 590 193 94 99 108
323 591 192 86 91 99
323 591 193 87 93 102
323 590 194 108 113 123
323 590 195 109 116 127
323 591 194 95 102 113
323 591 195 96 104 116
323 591 196 85 93 105
323 591 197 77 84 95
323 590 199 79 81 87
323 591 198 77 81 89
323 591 199 78 81 88
324 585 193 90 96 105
325 584 192 90 100 113
325 584 193 95 104 117
325 585 192 87 95 106
325 585 193 91 99 111
324 584 194 103 109 120
324 585 194 98 103 112
324 585 195 98 102 111
325 584 194 109 115 127
325 584 195 102 109 121
325 585 194 99 104 114
325 585 195 94 101 111
324 586 192 87 93 103
324 586 193 90 94 104
324 587 192 89 95 104
324 587 193 90 95 104
325 586 192 89 95 105
324 586 194 96 99 106
324 586 195 91 95 103
324 587 194 94 97 105
324 587 195 89 94 102
324 584 196 80 85 94
324 584 197 84 89 97
325 584 196 84 92 103
325 584 197 81 86 95
325 585 196 84 92 103
325 585 197 80 86 95
324 584 198 87 92 101
324 584 199 94 99 108
324 585 199 81 86 95
325 584 198 94 98 107
325 585 198 81 86 95
325 585 199 80 85 94
324 586 196 81 88 97
324 586 197 78 84 93
324 587 196 83 88 98
324 587 197 79 83 92
325 586 196 85 91 101
325 586 197 79 84 93
325 587 197 79 83 91
324 586 198 78 83 92
324 586 199 77 82 90
324 587 198 78 82 90
324 587 199 78 82 89
325 586 198 79 84 93
325 586 199 79 84 92
325 587 198 79 83 90
324 588 192 101 105 114
324 588 193 96 101 110
324 589 192 103 106 114
324 588 194 101 104 112
324 588 195 99 103 111
324 589 194 113 116 123
324 589 195 112 116 127
324 590 195 109 116 128
324 588 196 89 94 103
324 588 197 82 87 95
324 589 196 97 105 117
324 589 197 86 92 101
324 588 198 82 86 93
324 588 199 82 85 93
324 589 198 82 86 94
324 589 199 83 86 93
324 590 196 95 104 117
324 590 197 83 91 102
324 591 196 86 96 109
324 591 197 79 85 96
324 590 198 81 85 93
324 590 199 79 82 88
324 591 198 79 84 93
323 586 203 83 87 95
323 587 203 84 88 96
323 585 205 94 98 107
323 585 206 100 106 116
323 585 207 96 102 112
323 586 204 85 88 96
323 586 205 86 92 101
323 587 204 84 88 96
323 587 205 86 91 100
323 586 206 90 96 106
323 586 207 89 95 105
323 587 206 89 94 104
323 587 207 90 96 105
323 588 201 85 89 98
323 589 201 84 88 96
323 588 202 85 90 98
323 588 203 84 89 97
323 589 202 85 90 98
323 589 203 84 89 97
322 591 201 91 95 103
323 590 200 81 84 92
323 590 201 83 87 95
323 591 200 81 85 92
323 591 201 86 89 96
322 590 202 89 95 105
322 590 203 86 92 102
322 591 202 100 106 115
322 591 203 101 107 118
323 590 202 85 90 99
323 590 203 83 89 98
322 589 204 83 88 97
322 589 205 84 89 98
323 588 204 83 88 96
323 588 205 86 91 99
323 589 204 83 88 96
323 589 205 84 89 98
322 588 206 93 98 107
322 588 207 99 104 113
322 589 206 87 93 102
322 589 207 97 102 112
323 588 206 89 94 103
323 588 207 100 105 114
322 590 204 85 91 100
322 590 205 85 91 100
322 591 204 92 99 109
322 591 205 86 92 102
322 590 206 89 95 104
322 590 207 93 98 107
322 591 206 85 91 101
322 591 207 86 91 100
324 584 200 95 100 109
324 584 201 90 95 104
324 585 200 84 89 97
324 585 201 85 89 97
324 584 202 87 92 101
324 584 203 87 91 99
324 585 202 86 90 99
324 585 203 87 91 99
324 586 200 81 85 93
324 586 201 81 86 93
324 587 200 82 85 92
324 587 201 83 87 94
324 586 202 82 87 95
324 586 203 84 89 96
324 587 202 83 87 95
324 587 203 84 88 96
324 584 204 87 91 99
324 584 205 99 103 111
324 585 204 89 92 100
324 585 205 100 104 112
324 584 206 106 111 120
324 584 207 103 108 118
324 585 206 110 115 125
324 585 207 108 114 124
324 588 200 85 88 96
324 588 201 85 89 97
324 589 200 83 87 95
324 590 200 82 86 94
321 576 215 90 94 102
321 577 215 89 93 101
322 576 213 91 96 104
323 576 212 101 106 115
323 576 213 95 100 109
323 577 212 112 118 128
323 577 213 89 96 106
322 576 214 88 92 101
322 577 214 87 92 101
322 577 215 86 90 99
323 577 214 86 92 101
323 578 212 114 121 132
323 578 213 95 103 114
323 579 212 120 127 138
323 579 213 102 109 120
322 578 214 85 91 100
322 578 215 84 89 97
322 579 215 82 87 96
323 578 214 85 91 101
323 579 214 84 91 101
323 579 215 83 88 96
323 580 211 100 105 115
323 581 211 92 96 105
323 580 212 105 110 120
323 580 213 96 103 113
323 581 212 92 96 104
323 581 213 90 95 103
322 580 215 81 85 94
322 581 215 83 87 95
323 580 214 83 89 99
323 580 215 82 86 95
323 581 214 88 92 100
323 581 215 85 89 96
323 582 212 91 96 104
323 582 213 93 97 105
323 583 213 102 107 116
322 583 215 103 106 114
323 582 214 98 101 109
323 582 215 92 96 103
323 583 214 115 118 126
323 583 215 110 113 121
325 576 208 91 97 106
325 576 209 99 104 113
325 577 208 93 99 108
325 577 209 111 116 126
324 576 210 116 119 128
324 576 211 116 119 128
324 577 210 121 127 139
324 577 211 120 127 139
325 576 210 109 113 122
325 577 210 120 125 136
325 578 208 101 105 115
325 578 209 118 123 133
325 579 208 94 99 108
325 579 209 104 110 120
324 578 210 121 129 143
324 578 211 121 130 144
324 579 210 122 130 143
324 579 211 121 130 144
325 578 210 122 129 141
325 579 210 113 122 135
324 576 212 107 111 120
324 577 212 122 127 138
324 578 212 121 128 141
324 579 212 123 130 142
324 580 209 91 96 105
324 581 208 88 93 102
324 581 209 88 93 101
325 580 208 89 94 103
325 580 209 93 99 109
324 580 210 105 111 123
324 580 211 106 113 124
324 581 210 91 95 103
324 581 211 92 96 104
324 582 208 88 93 102
324 582 209 89 93 102
324 583 208 93 98 108
324 583 209 89 93 102
324 582 210 89 93 100
324 582 211 92 95 102
324 583 210 89 93 101
324 583 211 91 95 103
324 582 212 92 96 104
324 583 212 91 96 105
320 576 216 91 93 99
320 576 217 89 92 100
320 577 217 90 93 99
321 576 216 93 95 102
321 577 216 90 93 100
321 577 217 89 91 97
320 577 218 87 92 101
320 578 217 87 90 97
321 578 216 84 88 96
321 578 217 88 91 99
321 579 217 87 91 98
320 578 218 85 89 97
320 579 218 86 89 96
320 579 219 88 92 99
321 579 218 87 90 97
322 578 216 82 87 95
322 579 216 85 89 97
321 580 217 85 88 95
320 580 218 88 91 97
320 580 219 87 90 97
320 581 219 88 92 100
321 580 218 87 91 97
321 581 218 85 89 97
321 581 219 84 88 97
321 582 218 83 88 97
321 582 219 92 97 106
321 583 218 80 86 96
321 583 219 87 92 101
322 580 216 83 87 95
322 580 217 86 88 95
322 581 216 85 89 96
322 581 217 86 88 94
322 581 218 84 87 94
322 582 216 89 92 100
322 582 217 86 89 95
322 583 216 94 98 105
322 583 217 83 87 94
322 582 218 82 86 93
322 583 218 79 85 93
320 580 220 86 91 99
320 581 220 97 101 109
320 581 221 106 110 119
320 582 220 111 115 125
320 582 221 108 113 122
320 583 220 105 111 121
320 583 221 95 101 112
321 582 220 112 116 125
321 583 220 90 96 106
320 583 222 86 93 103
323 585 208 95 101 110
323 585 209 91 96 105
323 585 211 88 93 101
323 586 208 88 93 103
323 586 209 88 94 103
323 587 208 92 97 107
323 587 209 90 96 105
323 586 210 88 93 102
323 586 211 87 92 101
323 587 210 89 94 102
323 587 211 87 92 100
323 584 212 91 96 105
323 584 213 96 101 109
323 585 212 85 90 98
323 585 213 88 92 100
322 584 215 95 99 108
322 585 215 80 86 94
323 584 214 108 112 121
323 584 215 106 110 118
323 585 214 85 90 99
323 586 212 87 91 100
323 586 213 85 90 99
323 587 212 85 91 99
323 587 213 85 91 100
322 586 214 80 86 95
322 586 215 79 85 94
322 587 214 86 93 103
322 587 215 83 89 99
323 586 214 82 88 97
323 587 214 86 93 102
322 589 208 101 106 116
322 589 209 93 99 108
323 588 208 104 109 118
323 588 209 100 105 114
323 589 209 96 102 112
322 589 210 87 91 99
322 589 211 86 90 99
323 588 210 90 95 103
323 588 211 84 89 98
323 589 210 89 93 101
323 589 211 84 89 97
322 590 208 91 96 105
322 590 209 89 94 102
322 591 208 87 91 100
322 591 209 87 91 99
322 590 210 86 90 99
322 590 211 84 89 98
322 591 210 86 90 98
322 591 211 84 88 96
321 591 212 85 90 99
321 591 213 86 92 101
321 590 215 95 102 113
321 591 214 86 92 102
321 591 215 92 98 108
322 588 213 110 115 126
322 589 212 93 98 107
322 589 213 103 109 119
323 588 212 87 93 102
323 588 213 97 103 113
323 589 212 92 97 107
323 589 213 96 102 112
322 588 214 101 107 118
322 588 215 93 100 111
322 589 214 109 115 126
322 589 215 101 108 120
323 588 214 97 103 113
322 590 212 90 96 106
322 590 213 98 104 115
322 591 212 86 91 100
322 591 213 89 95 105
322 590 214 100 106 117
322 590 215 98 105 116
322 591 214 94 101 112
324 584 208 97 102 112
324 584 209 91 96 104
324 585 208 96 101 110
324 585 209 92 96 105
324 584 210 90 94 102
324 584 211 89 94 102
324 585 210 89 93 102
324 585 211 89 93 102
324 584 212 88 93 102
321 584 218 81 87 96
321 584 219 81 87 96
321 585 219 83 88 95
321 586 219 84 88 96
321 587 219 83 87 95
322 584 216 89 94 103
322 584 217 81 87 95
322 585 216 85 89 96
322 585 217 82 87 94
322 584 218 83 88 96
322 585 218 83 87 95
322 585 219 83 88 96
322 586 216 83 87 95
322 586 217 83 87 95
322 587 216 84 89 98
322 587 217 83 88 96
322 586 218 84 88 95
322 586 219 85 89 96
322 587 218 84 88 96
320 584 221 83 89 98
320 585 221 85 90 98
321 584 220 80 87 96
321 584 221 81 87 96
321 585 220 83 87 95
321 585 221 85 90 98
320 584 222 83 88 97
320 584 223 83 88 97
320 585 222 83 88 95
320 585 223 84 88 96
321 586 220 84 88 95
321 586 221 85 89 96
321 587 220 83 87 94
321 587 221 83 87 95
320 586 222 85 89 96
320 586 223 84 88 95
320 587 222 84 88 95
320 587 223 81 85 93
321 589 216 94 101 113
321 589 217 90 96 107
321 588 218 83 88 96
321 588 219 82 87 95
321 589 218 87 92 102
321 589 219 85 90 99
321 590 216 97 104 115
321 590 217 93 99 110
321 591 216 86 93 103
321 591 217 85 92 102
321 590 218 87 93 102
