ply
format ascii 1.0
element vertex 2146
property float x
property float y
property float z
property uchar red
property uchar green
property uchar blue
end_header
99 755 204 89 94 103
99 755 205 88 94 102
98 754 206 86 92 101
98 755 206 88 93 102
99 758 203 91 96 105
99 759 203 91 97 106
96 756 207 85 91 100
96 757 207 84 91 100
97 756 206 86 92 102
97 756 207 85 91 101
97 757 206 85 91 101
97 757 207 84 90 100
97 759 205 85 91 101
96 758 207 86 92 101
96 759 207 86 92 101
97 758 206 89 95 105
97 758 207 90 96 105
97 759 206 89 95 104
98 756 205 86 92 101
98 757 205 85 91 100
99 756 204 87 93 101
99 756 205 86 92 101
99 757 204 86 92 101
99 757 205 86 91 100
98 756 206 87 93 101
98 757 206 86 92 101
98 758 205 87 93 102
98 759 205 86 92 102
99 758 204 88 94 103
99 759 204 88 94 103
98 758 206 87 94 103
98 759 206 87 93 103
100 752 203 86 92 102
100 753 203 87 93 102
101 752 202 87 93 102
101 752 203 87 93 103
101 753 202 88 93 103
101 753 203 88 94 104
100 754 203 89 95 104
100 755 203 91 97 106
101 754 202 91 97 106
101 754 203 89 95 105
101 755 202 93 99 108
102 752 201 85 91 99
102 753 201 85 91 99
103 752 200 85 90 99
103 752 201 84 89 98
103 753 200 85 91 100
103 753 201 84 90 99
102 752 202 86 92 101
102 753 202 86 92 101
102 754 201 89 95 104
102 755 201 88 94 104
103 754 200 87 92 101
103 754 201 87 92 101
103 755 200 84 90 99
100 753 204 87 93 103
100 754 204 89 95 104
100 755 204 90 95 104
100 756 203 87 92 101
100 757 202 86 92 102
100 757 203 86 92 101
101 756 202 85 92 101
101 757 202 84 91 100
101 759 201 87 93 102
100 758 202 89 95 104
100 758 203 90 95 104
100 759 202 91 97 105
100 759 203 92 98 106
101 758 202 87 93 102
101 759 202 89 95 104
102 756 201 84 90 100
102 757 201 84 91 100
103 756 200 82 88 98
103 757 200 82 89 98
102 758 200 85 91 100
102 758 201 86 92 101
102 759 200 86 92 101
102 759 201 86 92 101
103 758 200 84 90 99
103 759 200 85 91 100
103 760 199 87 93 103
103 761 199 88 95 105
103 762 198 94 101 112
103 762 199 91 97 108
103 763 198 93 100 111
103 763 199 92 99 110
103 764 198 98 105 115
103 764 199 96 104 114
103 765 198 99 106 116
103 765 199 100 106 117
103 766 198 100 106 117
103 766 199 102 108 119
103 767 198 99 106 116
103 767 199 97 104 114
99 760 203 91 96 105
99 761 203 89 96 105
99 762 203 94 101 111
99 763 203 100 107 117
97 761 205 86 92 102
96 760 207 81 88 97
96 761 207 80 87 96
97 760 206 84 91 101
97 761 206 83 90 100
97 762 205 87 94 104
97 763 205 96 103 114
96 762 207 82 89 99
96 763 207 87 93 103
97 762 206 85 92 102
97 763 206 89 96 106
98 760 205 85 91 101
98 761 205 85 92 102
99 760 204 88 94 103
99 761 204 88 94 103
98 760 206 84 91 101
98 762 205 89 96 106
98 763 205 103 109 120
99 762 204 91 98 108
99 763 204 98 105 117
99 764 203 102 109 119
99 765 203 98 105 116
99 766 203 94 100 111
99 767 203 95 100 110
97 764 205 103 110 121
97 765 205 102 109 120
96 764 207 92 98 108
96 765 206 90 97 107
96 765 207 91 98 108
97 764 206 95 102 112
97 765 206 95 102 112
97 766 205 88 96 106
97 767 205 86 93 103
96 766 206 85 92 102
96 766 207 88 95 105
96 767 207 89 95 105
97 766 206 86 93 104
97 767 206 88 94 104
98 764 205 107 114 125
98 765 204 106 113 124
98 765 205 107 113 124
99 764 204 102 109 121
99 765 204 100 107 118
98 766 204 90 97 107
98 766 205 90 97 108
98 767 204 87 93 103
98 767 205 86 92 101
99 766 204 91 98 108
99 767 204 91 97 107
101 760 201 87 92 102
101 761 201 87 93 103
100 760 202 91 97 105
100 760 203 91 97 105
100 761 202 90 96 105
100 761 203 90 96 105
101 760 202 89 95 104
101 761 202 89 95 104
101 762 201 89 96 106
101 763 201 92 99 109
100 762 202 91 97 107
100 762 203 92 98 108
100 763 202 94 101 112
100 763 203 98 105 115
101 762 202 90 97 107
101 763 202 92 99 110
102 760 200 84 90 100
102 760 201 85 91 100
102 761 200 85 92 102
102 761 201 86 93 102
103 760 200 84 91 100
102 762 200 88 95 105
102 762 201 88 94 104
102 763 200 93 100 111
102 763 201 93 100 110
101 764 201 92 99 110
101 765 201 93 100 111
100 764 202 96 103 114
100 764 203 102 108 119
100 765 202 95 102 113
100 765 203 99 106 116
101 764 202 93 100 111
101 765 202 93 99 110
101 766 201 96 102 113
101 767 201 94 100 110
100 766 202 96 102 112
100 766 203 96 103 114
100 767 202 96 101 111
101 766 202 95 101 112
102 764 200 95 102 113
102 764 201 93 100 111
102 765 200 98 105 116
102 765 201 94 101 112
102 766 200 102 107 118
102 767 200 96 102 113
107 752 195 85 91 100
107 753 195 87 93 103
107 754 195 86 93 103
107 755 195 88 95 105
105 752 197 88 95 105
105 753 197 92 99 109
104 752 199 88 94 103
104 753 199 89 95 104
105 752 198 88 95 105
105 753 198 91 97 107
105 754 197 90 97 107
105 755 197 86 93 102
104 754 199 89 95 104
104 755 198 83 89 99
104 755 199 84 90 99
105 754 198 91 98 108
105 755 198 84 91 101
106 752 196 86 92 102
106 752 197 86 93 103
106 753 196 90 97 107
106 753 197 92 99 109
107 752 196 86 93 102
107 753 196 89 95 105
106 754 196 90 97 107
106 754 197 90 97 107
106 755 196 86 93 103
106 755 197 84 91 102
107 754 196 88 94 105
107 755 196 88 94 104
107 756 195 94 101 111
107 757 195 94 100 110
107 758 194 87 94 103
107 758 195 89 95 105
107 759 194 84 91 100
107 759 195 83 89 99
105 757 197 84 90 100
104 756 198 83 89 99
104 756 199 82 88 97
104 757 198 83 89 99
104 757 199 82 88 98
105 756 198 83 90 99
105 757 198 83 89 99
105 758 197 83 89 98
105 759 197 84 90 100
104 758 198 82 89 99
104 758 199 82 88 98
104 759 198 85 91 101
104 759 199 85 92 101
105 758 198 82 89 98
105 759 198 85 91 101
106 756 196 88 95 104
106 756 197 84 91 101
106 757 196 87 93 103
106 757 197 85 91 101
107 756 196 92 98 108
107 757 196 90 96 106
106 758 196 85 92 101
106 758 197 84 90 99
106 759 196 83 89 98
106 759 197 84 90 99
109 752 193 84 90 99
109 753 193 85 91 100
108 752 194 84 90 99
108 752 195 85 91 100
108 753 194 86 92 101
108 753 195 87 93 102
109 752 194 84 89 98
109 753 194 85 91 100
109 754 193 85 91 101
109 755 193 85 91 101
108 754 194 86 92 101
108 754 195 87 93 103
108 755 194 88 95 105
108 755 195 89 96 106
109 754 194 86 92 101
110 752 192 84 90 99
110 753 192 86 92 101
110 753 193 87 92 101
111 752 192 84 90 99
111 753 192 86 92 101
110 754 192 87 93 102
110 755 192 85 91 101
109 756 192 82 89 99
109 756 193 86 93 103
109 757 193 86 93 103
108 756 194 94 101 111
108 757 194 93 100 110
109 758 193 86 93 103
109 759 193 86 92 102
108 758 194 90 97 106
108 759 194 85 92 102
110 756 192 83 90 99
110 757 192 85 91 100
110 758 192 87 93 102
110 759 192 86 92 101
104 752 200 87 93 102
104 753 200 86 91 100
106 760 195 82 89 98
106 761 195 84 91 101
107 760 194 83 90 99
107 760 195 82 89 98
107 761 194 83 90 100
107 761 195 83 90 100
106 762 195 89 96 106
106 763 195 92 99 109
107 762 194 84 91 101
107 762 195 87 94 104
107 763 194 85 91 101
107 763 195 90 97 107
105 760 197 86 93 102
105 761 197 95 101 111
104 760 198 89 95 105
104 761 198 95 102 112
105 760 198 88 95 105
105 761 198 94 100 110
105 762 196 95 102 113
105 762 197 99 106 116
105 763 196 96 103 114
105 763 197 94 102 113
104 762 198 98 105 116
104 763 198 93 101 111
106 760 196 82 89 99
106 761 196 86 93 103
106 762 196 92 99 109
106 763 196 94 101 112
106 764 195 97 103 114
106 765 195 97 103 114
107 764 194 90 97 106
107 764 195 94 101 111
107 765 194 93 99 109
107 765 195 97 103 113
106 766 195 86 93 103
106 767 195 81 89 99
107 766 194 87 93 103
107 766 195 87 94 104
107 767 194 86 92 102
107 767 195 82 89 99
105 764 196 100 106 117
105 764 197 98 104 115
105 765 196 95 102 112
105 765 197 96 103 114
104 764 198 98 105 115
104 765 198 99 106 116
104 766 197 91 98 109
104 767 197 94 101 112
105 766 196 89 96 106
105 766 197 91 98 108
105 767 196 85 92 103
105 767 197 90 96 107
104 766 198 94 101 112
104 767 198 97 104 115
106 764 196 99 105 116
106 765 196 96 103 113
106 766 196 86 94 104
106 767 196 82 90 100
108 761 193 83 90 99
109 760 192 82 89 99
109 760 193 82 89 99
109 761 192 82 89 99
109 761 193 83 90 99
108 760 194 83 89 99
108 761 194 84 90 100
108 762 193 82 88 98
108 763 193 82 89 99
109 762 192 81 88 99
109 762 193 82 88 98
109 763 192 83 90 100
109 763 193 82 89 99
108 762 194 83 90 99
108 763 194 83 90 100
110 760 192 83 89 99
110 761 192 84 91 102
110 762 192 84 92 103
110 763 192 88 95 106
108 764 193 86 92 102
108 765 193 88 94 104
109 764 192 87 93 103
109 764 193 86 93 103
109 765 192 87 93 102
109 765 193 88 94 103
108 764 194 86 92 102
108 765 194 89 95 104
108 766 193 87 93 102
108 767 193 88 93 103
109 766 192 85 91 100
109 766 193 86 92 101
109 767 192 85 91 101
109 767 193 87 93 102
108 766 194 87 93 102
108 767 194 88 94 103
110 764 192 90 96 106
110 765 192 87 92 102
110 766 192 84 89 98
110 767 192 83 89 98
96 752 208 82 88 97
96 753 208 82 88 97
96 754 208 83 90 99
96 755 208 84 91 100
96 756 208 84 91 100
96 757 208 83 90 99
96 758 208 81 88 97
96 759 208 81 87 97
96 760 208 79 86 95
112 736 193 68 74 82
112 737 192 75 81 89
112 737 193 72 78 86
113 736 193 69 75 83
113 737 192 74 80 88
112 738 192 84 89 98
112 739 192 87 93 102
113 738 192 84 90 99
113 739 192 84 91 100
114 736 193 73 79 87
114 737 192 79 85 94
115 736 193 76 82 90
115 737 192 77 83 92
114 738 192 85 92 101
115 738 192 81 88 97
112 740 192 85 91 100
116 736 193 74 80 88
116 737 192 76 83 91
117 736 192 69 75 83
117 736 193 70 75 83
117 737 192 73 79 87
116 738 192 78 85 94
117 738 192 75 82 90
118 736 192 65 71 79
118 736 193 63 69 77
118 737 192 68 74 81
119 736 193 62 68 75
119 737 192 63 69 77
118 738 192 71 77 84
119 738 192 66 72 79
120 736 193 61 67 74
120 737 192 62 68 75
120 737 193 62 68 75
121 736 193 60 66 73
121 737 192 61 67 74
121 737 193 60 66 73
120 738 192 64 69 77
121 738 192 61 67 74
122 736 193 58 64 72
122 737 192 59 65 73
122 737 193 58 64 72
123 736 192 57 63 70
123 736 193 56 63 70
123 737 192 58 64 72
122 738 192 59 65 72
123 738 192 59 64 72
96 750 255 107 113 125
96 751 255 108 114 126
96 752 255 109 115 127
96 753 255 110 117 128
96 754 255 109 115 126
96 755 255 105 111 122
96 756 255 104 110 120
96 757 255 104 109 120
96 758 255 100 105 114
96 759 255 96 101 110
96 760 255 91 96 106
152 669 159 73 79 88
153 669 159 82 88 97
152 670 159 72 78 86
152 671 159 72 78 86
153 670 159 75 81 90
153 671 159 74 80 88
154 669 158 89 95 103
154 669 159 90 96 105
155 669 158 96 102 112
155 671 157 74 80 89
154 670 158 82 88 96
154 670 159 79 85 94
154 671 158 76 81 89
155 670 158 83 90 99
155 671 158 75 81 90
159 669 155 81 87 96
159 670 155 78 85 94
159 671 155 79 85 94
156 669 157 95 101 111
157 669 157 91 97 107
156 669 158 97 103 114
156 670 157 84 90 100
156 671 157 75 82 91
157 670 157 81 88 98
157 671 156 76 83 93
157 671 157 77 84 94
158 669 156 83 89 99
158 670 156 78 85 94
158 671 156 76 83 93
143 671 167 88 93 103
139 669 174 86 92 101
139 669 175 82 87 96
139 670 174 78 84 93
139 670 175 75 80 88
139 671 174 75 80 88
139 671 175 74 79 87
141 669 170 100 104 114
141 669 171 100 106 115
141 670 170 94 99 108
141 670 171 91 97 106
141 671 170 84 90 98
141 671 171 80 87 96
142 669 169 91 97 106
143 669 168 88 94 103
143 669 169 89 95 104
142 669 170 97 102 111
142 670 169 90 95 104
142 671 169 87 92 101
143 670 168 88 93 103
143 670 169 88 94 103
143 671 168 88 94 103
142 670 170 93 98 107
140 669 172 101 107 117
140 669 173 95 101 112
141 669 172 100 106 116
140 670 172 88 94 103
140 670 173 83 89 98
140 671 172 79 85 94
140 671 173 76 82 90
141 670 172 93 99 109
135 671 183 72 79 87
135 669 184 76 82 91
135 669 185 74 81 89
134 669 186 73 78 85
134 669 187 71 76 83
135 669 186 73 78 86
135 670 184 73 79 88
135 670 185 72 78 86
135 671 184 71 77 86
135 671 185 71 76 84
134 670 186 71 76 83
134 670 187 72 77 84
134 671 186 71 76 83
134 671 187 72 77 84
135 670 186 72 77 85
133 669 189 68 73 80
133 669 190 68 74 81
133 669 191 73 79 87
133 670 188 70 75 82
133 670 189 69 74 81
133 671 188 70 75 82
133 671 189 70 75 83
133 670 190 71 76 84
133 670 191 74 80 88
133 671 190 74 79 87
133 671 191 77 83 91
134 669 188 70 75 82
134 669 189 68 73 80
134 670 188 71 75 82
137 669 179 76 82 90
137 670 178 74 80 87
137 670 179 74 80 88
137 671 178 75 80 88
137 671 179 74 80 88
138 669 176 75 81 89
138 669 177 76 82 90
139 669 176 78 83 92
138 669 178 77 83 91
138 669 179 80 85 93
138 670 176 75 80 88
138 670 177 74 80 87
138 671 176 75 80 88
138 671 177 75 80 87
139 670 176 74 80 87
139 671 176 73 78 86
138 670 178 74 80 87
138 671 178 74 79 87
136 669 181 77 83 91
137 669 180 75 81 89
137 669 181 74 80 88
136 669 182 79 84 93
136 669 183 78 84 93
136 670 181 74 80 88
136 671 180 73 79 87
136 671 181 73 79 87
137 670 180 74 79 87
137 671 180 74 80 88
136 670 182 76 82 90
136 670 183 74 80 88
136 671 182 74 80 87
136 671 183 73 78 86
136 669 184 78 84 93
147 671 163 74 80 89
144 669 167 85 91 100
145 669 166 82 88 97
145 669 167 83 89 98
144 670 167 86 92 101
144 671 166 86 92 101
144 671 167 88 93 103
145 670 166 81 88 97
145 671 166 83 89 98
146 669 165 78 84 92
147 669 164 74 80 88
146 669 166 81 87 96
146 670 165 77 84 92
146 671 164 77 84 94
146 671 165 80 87 96
147 670 164 73 79 88
147 671 164 75 82 91
148 669 163 72 78 86
149 669 162 73 78 86
149 669 163 73 79 87
148 670 163 71 77 85
148 671 163 72 78 87
149 670 162 72 77 85
149 671 162 73 79 86
150 669 161 74 80 87
151 669 160 73 79 88
151 669 161 74 80 88
150 670 161 73 78 86
150 671 161 73 79 86
151 670 160 71 77 86
151 670 161 72 78 86
151 671 160 72 78 87
148 669 164 72 78 86
148 670 164 71 77 86
152 669 160 74 80 88
152 670 160 72 78 87
151 673 159 81 86 94
151 674 159 84 90 98
151 675 159 85 90 99
150 677 159 74 80 89
151 676 159 78 83 92
151 677 159 75 81 90
150 678 159 74 80 89
150 679 159 74 81 89
151 678 159 77 83 91
151 679 158 83 89 97
151 679 159 78 84 93
150 680 159 77 83 92
150 681 159 80 85 94
151 680 158 83 90 98
151 680 159 81 87 96
151 681 158 80 86 95
151 681 159 80 86 94
150 682 159 76 82 91
150 683 159 75 81 89
151 682 158 75 81 90
151 682 159 75 81 89
151 683 158 74 79 88
151 683 159 73 79 87
149 686 159 77 84 93
149 687 159 76 82 92
150 684 159 75 81 90
150 685 159 75 82 91
151 684 158 74 79 88
151 684 159 74 79 87
151 685 158 74 80 88
150 686 159 76 82 91
150 687 158 75 81 90
150 687 159 75 82 91
151 686 158 74 80 89
151 687 158 75 81 90
152 672 159 75 80 88
152 673 159 79 84 92
153 672 158 74 79 87
153 672 159 75 80 87
153 673 158 76 81 89
153 673 159 76 81 89
152 674 159 82 88 96
152 675 158 80 86 95
152 675 159 82 88 96
153 674 158 78 83 91
153 675 158 78 83 92
155 672 157 76 82 90
155 673 157 77 82 91
154 672 158 75 80 88
154 673 158 76 82 89
155 672 158 76 81 89
154 674 157 77 82 90
154 675 157 76 81 89
155 674 157 76 82 90
155 675 157 75 81 89
154 674 158 78 83 90
154 675 158 76 81 89
152 676 158 76 82 91
152 676 159 78 84 93
152 677 158 76 82 91
153 676 158 75 81 90
153 677 158 76 82 91
153 678 157 83 89 97
153 679 157 81 87 96
152 678 158 83 88 97
152 679 158 85 90 99
153 678 158 82 88 97
153 679 158 84 90 99
154 676 157 75 80 88
154 677 157 75 80 89
155 676 157 75 81 89
155 677 156 73 79 87
155 677 157 74 80 87
154 676 158 74 80 89
154 678 157 76 82 90
154 679 157 76 82 91
155 678 156 73 79 87
155 678 157 74 79 87
155 679 156 75 81 89
158 672 155 81 88 97
158 673 155 86 93 102
159 672 155 81 88 97
159 673 155 86 92 101
158 674 155 92 98 107
158 675 155 88 93 102
159 674 155 90 96 105
159 675 154 83 89 98
159 675 155 85 91 100
156 672 157 77 83 91
156 673 157 77 83 91
157 672 156 78 85 95
157 672 157 77 84 93
157 673 156 80 86 95
157 673 157 78 84 93
156 674 156 75 81 90
156 674 157 74 81 89
156 675 156 76 82 90
156 675 157 74 81 89
157 674 156 82 88 97
157 675 156 82 88 96
158 672 156 78 86 95
158 673 156 85 91 101
158 674 156 89 95 104
158 675 156 87 92 101
157 676 155 81 86 95
157 677 155 77 82 91
157 678 155 82 87 96
157 679 155 90 95 103
158 676 155 81 87 95
158 677 155 79 85 94
159 676 154 81 87 95
159 676 155 81 87 96
159 677 154 78 84 93
159 677 155 79 85 94
158 678 155 84 89 98
158 679 155 89 95 103
159 678 154 81 87 96
159 679 154 85 91 100
156 676 156 75 81 89
156 677 156 74 79 87
157 676 156 79 84 92
157 677 156 75 81 89
156 678 156 74 80 88
156 679 156 81 86 94
157 678 156 78 84 92
157 679 156 88 93 101
155 683 155 73 79 86
153 680 157 77 83 92
153 681 157 76 82 91
152 680 158 83 89 98
152 681 158 79 85 94
153 680 158 79 85 94
153 681 158 77 84 93
153 682 157 75 81 90
153 683 157 75 81 89
152 682 158 76 82 90
152 683 158 75 81 89
154 680 156 75 81 89
154 680 157 76 82 90
154 681 156 76 81 89
154 681 157 74 80 88
155 680 156 76 82 90
155 681 156 76 82 90
154 682 156 74 79 88
154 682 157 74 79 88
154 683 156 74 80 88
154 683 157 74 80 88
155 682 156 75 80 88
155 683 156 74 79 87
155 684 155 75 81 89
155 685 155 82 88 97
154 686 155 89 95 105
154 687 155 92 99 108
155 686 155 89 95 104
155 687 155 90 96 105
152 684 157 76 81 90
152 685 157 76 83 91
153 684 156 76 82 91
153 684 157 76 82 91
153 685 156 84 90 99
153 685 157 79 85 94
152 684 158 74 80 89
152 685 158 75 81 90
152 686 157 76 83 92
152 687 157 82 88 97
153 686 156 91 97 106
153 686 157 84 90 100
153 687 156 96 102 112
153 687 157 91 97 106
152 686 158 75 81 90
154 684 156 76 82 90
154 685 156 84 90 99
155 684 156 73 79 87
154 686 156 90 97 106
154 687 156 96 102 112
156 681 155 78 84 92
157 680 155 90 95 103
157 681 155 81 87 95
156 682 155 75 80 88
156 683 155 74 79 87
157 682 155 75 82 91
157 683 155 73 79 88
158 680 155 89 94 103
158 681 154 84 90 99
158 681 155 82 88 96
159 680 154 87 92 101
159 681 154 86 92 101
158 682 154 78 85 94
158 682 155 79 85 94
158 683 154 76 82 91
158 683 155 74 81 89
159 682 154 81 87 96
159 683 154 77 83 92
156 680 156 83 89 97
156 681 156 79 85 93
156 682 156 76 82 89
156 684 155 74 80 88
156 685 155 79 85 93
157 684 154 74 81 89
157 684 155 73 80 88
157 685 154 77 82 91
157 685 155 77 83 91
156 686 155 83 89 98
156 687 154 79 85 94
156 687 155 83 89 98
157 686 154 75 81 90
157 687 154 74 80 89
159 684 153 76 82 90
159 685 153 76 82 90
158 684 154 75 81 90
158 685 154 76 82 90
159 684 154 76 82 90
159 685 154 75 81 90
158 687 153 76 81 89
159 686 153 77 83 91
159 687 153 76 82 90
158 686 154 77 82 90
158 687 154 75 80 88
149 688 159 76 83 92
149 689 159 77 83 92
148 690 159 80 86 95
148 691 159 82 88 97
149 690 159 79 85 94
149 691 158 81 87 97
149 691 159 81 88 97
151 688 157 81 86 95
151 689 157 79 84 93
150 688 158 75 82 90
150 688 159 76 82 91
150 689 158 76 82 91
150 689 159 76 83 91
151 688 158 77 83 92
151 689 158 78 84 92
150 690 157 77 83 92
150 691 157 77 83 92
151 690 157 77 83 91
151 691 157 76 82 91
150 690 158 77 83 92
150 691 158 79 85 94
148 692 159 80 87 96
148 693 159 82 89 98
149 692 158 85 91 100
149 692 159 82 89 98
149 693 158 87 93 102
149 693 159 86 92 101
148 694 159 82 88 97
148 695 159 79 85 93
149 694 158 84 90 99
149 694 159 83 89 98
149 695 158 80 86 95
149 695 159 79 85 94
150 692 157 82 88 97
150 693 157 84 90 99
151 692 156 74 80 89
151 692 157 78 84 93
151 693 156 74 80 88
151 693 157 79 85 94
150 692 158 82 89 98
150 693 158 85 91 100
150 694 157 82 88 97
150 695 157 76 83 93
151 694 156 73 79 88
151 694 157 77 84 93
151 695 156 72 79 88
151 695 157 74 81 90
150 694 158 85 91 100
150 695 158 78 85 95
147 701 159 85 92 102
147 702 159 86 93 103
147 703 159 86 93 103
148 696 159 77 83 91
148 697 159 78 84 92
149 696 158 77 84 93
149 696 159 77 83 92
149 697 158 77 84 93
149 697 159 78 84 92
148 698 159 78 84 93
148 699 159 80 86 96
149 698 158 78 85 93
149 698 159 77 83 91
149 699 158 80 86 95
149 699 159 78 84 93
150 696 157 77 84 93
150 697 157 82 89 98
151 696 156 76 82 91
151 696 157 76 83 93
151 697 156 85 91 100
151 697 157 85 91 100
150 696 158 76 83 93
150 697 158 79 86 95
150 698 157 86 92 101
150 699 157 84 90 99
151 698 156 89 95 104
151 698 157 90 96 104
151 699 156 82 88 97
151 699 157 85 91 100
151 701 155 74 80 88
149 700 157 79 85 94
149 701 157 76 82 91
148 700 159 84 91 100
148 701 159 84 90 100
149 700 158 81 87 96
149 701 158 79 85 94
149 702 157 77 83 92
149 703 157 78 84 93
148 702 158 82 88 97
148 702 159 84 91 100
148 703 158 82 89 98
148 703 159 84 90 100
149 702 158 79 85 94
149 703 158 80 86 95
150 700 157 81 87 96
150 701 157 76 82 91
151 700 156 78 85 93
151 701 156 75 82 90
150 702 156 75 82 90
150 702 157 76 83 91
150 703 156 77 83 91
150 703 157 78 83 92
151 702 156 76 81 90
151 703 156 76 82 91
159 695 151 75 80 88
153 690 155 77 84 93
153 691 155 75 81 89
154 688 155 91 98 107
154 689 155 85 92 102
155 688 155 89 95 104
155 689 155 85 91 101
154 690 155 77 84 94
154 691 155 74 80 89
155 690 155 77 84 93
155 691 154 74 80 89
155 691 155 74 81 89
152 688 157 85 91 100
152 689 157 81 87 96
153 688 156 93 99 108
153 689 156 85 91 101
152 690 156 78 84 92
152 690 157 78 84 92
152 691 156 76 81 90
153 690 156 80 86 95
153 691 156 76 82 90
154 688 156 92 99 109
153 692 155 76 81 88
153 693 155 75 79 87
153 694 155 72 77 85
153 695 155 70 76 84
154 692 155 76 81 89
154 693 155 75 80 88
155 692 154 75 81 89
155 692 155 76 81 90
155 693 154 75 81 89
155 693 155 76 81 90
154 694 154 72 78 86
154 694 155 72 78 86
154 695 154 73 79 87
154 695 155 71 77 85
155 694 154 73 79 88
155 695 154 73 79 87
152 692 156 74 80 88
152 693 156 73 79 87
153 692 156 75 80 88
153 693 156 75 80 88
152 694 156 71 77 86
152 695 156 71 77 85
156 688 154 83 89 98
156 688 155 87 93 102
156 689 154 77 83 92
156 689 155 82 88 97
157 688 154 74 81 89
157 689 154 73 79 87
157 691 153 76 82 90
156 690 154 73 80 88
156 691 154 74 80 89
157 690 154 73 79 88
157 691 154 75 81 89
158 688 153 74 79 87
158 689 153 73 79 86
159 688 153 75 80 88
159 689 153 74 79 87
158 688 154 73 79 87
158 689 154 72 78 86
158 690 153 74 79 87
158 691 153 76 81 89
159 690 153 74 79 87
159 691 152 74 80 88
159 691 153 76 81 89
157 692 153 86 91 99
157 693 153 88 93 101
156 692 154 77 83 92
156 693 154 81 86 94
157 692 154 82 88 96
156 694 153 78 84 92
156 695 153 74 80 89
157 694 153 79 85 93
157 695 153 74 80 88
156 694 154 77 83 91
156 695 154 74 80 88
158 692 153 85 89 97
158 693 153 85 90 98
159 692 152 76 82 90
159 692 153 79 84 92
159 693 152 78 84 92
158 694 152 76 81 89
158 694 153 77 83 91
158 695 152 73 79 88
159 694 152 74 80 88
159 695 152 74 79 87
159 696 151 75 81 89
159 697 151 74 80 88
159 698 151 75 82 91
159 699 151 78 84 93
157 702 151 75 80 88
157 703 151 75 80 88
158 700 151 80 86 94
158 701 151 76 82 91
159 700 151 77 83 92
159 701 150 72 79 88
159 701 151 74 81 89
158 702 151 75 81 89
158 703 150 74 81 90
158 703 151 74 80 89
159 702 150 74 81 90
159 702 151 74 80 89
159 703 150 78 84 94
152 696 155 76 81 90
152 697 155 79 84 92
153 696 155 72 77 86
153 697 155 73 79 87
152 698 155 77 83 91
152 699 155 74 81 90
153 698 155 73 79 87
153 699 154 71 78 86
153 699 155 71 78 87
154 696 154 73 79 87
154 696 155 72 78 86
154 697 154 72 78 87
154 697 155 72 78 86
155 696 154 74 80 88
155 697 154 76 82 91
155 698 153 89 94 103
155 699 153 85 90 99
154 698 154 74 80 88
154 699 154 75 82 90
155 698 154 82 88 96
155 699 154 84 90 98
152 696 156 75 80 89
152 697 156 82 87 95
152 698 156 84 89 98
152 699 156 78 85 94
152 700 155 73 80 88
152 701 155 73 79 87
153 700 154 71 77 86
153 700 155 71 77 86
153 701 154 71 78 86
153 701 155 71 78 86
152 702 155 75 81 89
152 703 154 77 83 92
152 703 155 77 83 91
153 702 154 73 79 88
153 703 154 77 83 92
154 701 153 73 79 88
155 700 153 79 85 93
155 701 153 75 81 89
154 700 154 74 80 88
154 701 154 72 78 86
154 702 153 74 80 88
154 703 153 77 83 91
155 702 153 74 80 89
155 703 152 78 83 91
155 703 153 77 83 91
154 702 154 73 79 88
154 703 154 76 82 91
152 700 156 77 83 92
152 701 156 75 81 90
156 696 153 76 82 90
156 697 153 81 86 95
157 696 153 75 81 89
157 697 152 76 83 92
157 697 153 80 86 95
156 696 154 76 81 90
156 698 153 87 93 101
156 699 153 88 93 102
157 698 152 81 88 97
157 698 153 85 92 101
157 699 152 84 91 100
157 699 153 86 92 101
158 696 152 73 80 88
158 697 152 74 81 90
159 696 152 74 80 88
159 697 152 74 80 88
158 698 152 78 85 94
158 699 152 82 89 98
156 700 153 81 87 95
156 701 153 78 83 91
157 700 152 83 89 98
157 700 153 83 89 97
157 701 152 79 85 93
156 702 152 77 82 89
156 702 153 75 81 89
156 703 152 76 82 89
157 702 152 76 81 89
157 703 152 76 81 89
158 700 152 83 89 97
158 701 152 79 85 93
143 672 167 90 95 104
143 673 167 92 97 105
142 675 167 86 92 100
143 674 166 91 96 105
143 674 167 93 98 106
143 675 166 90 96 104
143 675 167 89 94 103
142 676 167 83 88 97
142 677 167 81 87 95
143 676 166 89 94 102
143 676 167 88 93 101
143 677 166 84 89 98
143 677 167 84 89 98
142 678 167 82 88 97
142 679 167 88 93 102
143 678 166 83 88 97
143 678 167 82 88 97
143 679 166 86 91 100
143 679 167 86 92 100
139 672 173 76 81 88
139 673 173 74 80 88
138 673 175 78 83 91
139 672 174 75 80 88
139 672 175 75 80 88
139 673 174 75 80 88
139 673 175 76 82 89
139 674 173 74 79 87
139 675 172 73 79 87
139 675 173 74 80 87
138 674 174 76 82 90
138 674 175 80 85 94
138 675 174 77 83 91
138 675 175 82 88 96
139 674 174 74 80 88
139 677 171 74 80 89
139 678 171 77 83 91
139 679 171 81 87 95
137 676 175 82 88 96
137 677 175 79 85 94
137 678 174 84 91 100
137 678 175 82 89 98
137 679 174 87 93 102
137 679 175 83 90 99
138 676 173 77 83 91
138 677 173 77 83 92
139 676 172 74 79 87
139 676 173 75 80 88
139 677 172 75 81 89
139 677 173 77 83 91
138 676 174 80 85 93
138 676 175 82 88 97
138 677 174 79 85 93
138 677 175 79 85 94
138 678 173 82 88 97
138 679 173 86 92 100
139 678 172 78 84 92
139 678 173 79 85 93
139 679 172 80 86 94
138 678 174 84 90 99
138 679 174 88 94 103
141 673 169 88 93 102
140 673 171 77 83 91
141 672 170 82 88 96
141 672 171 79 84 92
141 673 170 83 89 97
141 673 171 79 84 92
141 674 169 88 93 102
141 675 169 82 88 97
140 674 171 76 82 90
140 675 170 76 82 91
140 675 171 74 80 89
141 674 170 82 88 96
141 674 171 78 83 92
141 675 170 77 84 93
142 672 168 87 93 102
142 672 169 84 90 99
142 673 168 92 97 106
142 673 169 88 93 102
143 672 168 88 94 103
143 673 168 92 97 105
142 674 168 94 99 108
142 674 169 93 98 107
142 675 168 87 92 101
140 672 172 77 82 91
140 672 173 76 81 89
140 673 172 76 81 89
140 673 173 75 81 89
140 674 172 75 80 88
140 675 172 74 79 87
141 676 168 80 85 94
141 676 169 79 85 94
141 677 168 79 85 94
141 677 169 78 84 93
140 676 170 76 82 91
140 676 171 75 81 89
140 677 170 76 82 91
140 677 171 74 80 89
141 676 170 78 84 92
141 678 168 85 91 99
141 678 169 83 89 98
141 679 168 91 97 106
141 679 169 90 96 105
140 678 170 80 86 94
140 678 171 78 84 93
140 679 170 86 92 100
140 679 171 83 89 97
142 676 168 83 89 97
142 677 168 79 85 94
142 678 168 84 90 99
142 679 168 89 95 104
142 680 167 89 95 103
142 681 167 84 90 99
143 680 166 87 93 101
143 680 167 88 93 102
143 681 166 86 92 101
143 681 167 85 91 100
142 682 167 83 88 97
142 683 167 82 88 97
143 682 166 85 91 100
143 682 167 84 90 98
143 683 166 85 91 100
141 684 167 82 88 96
141 685 167 83 89 97
141 687 167 83 88 97
143 685 165 84 91 100
142 684 167 84 89 98
142 685 166 83 89 98
142 685 167 83 89 98
143 684 166 85 91 100
143 685 166 84 90 99
143 686 165 84 90 99
143 687 165 82 88 97
142 686 166 84 90 99
142 686 167 84 90 98
142 687 166 83 88 97
142 687 167 82 88 97
143 686 166 84 89 98
143 687 166 84 90 98
139 680 171 79 85 93
139 681 171 80 86 94
139 682 171 79 85 93
139 683 171 80 85 94
137 680 174 85 91 100
137 680 175 83 89 98
137 681 174 81 87 95
137 681 175 79 85 94
137 682 174 78 83 91
137 682 175 77 83 91
137 683 174 78 83 91
137 683 175 77 83 91
138 680 172 80 86 94
138 680 173 83 89 97
138 681 172 79 85 93
138 681 173 80 86 94
139 680 172 79 85 93
139 681 172 79 84 92
138 680 174 87 93 102
138 682 172 78 84 92
138 682 173 78 83 91
138 683 172 79 84 92
138 683 173 78 83 91
139 682 172 79 84 92
139 683 172 80 85 93
139 684 170 84 90 98
139 684 171 83 88 97
139 685 170 88 94 103
139 685 171 88 94 103
139 687 169 92 98 107
138 687 171 94 100 109
139 686 170 92 98 107
139 686 171 92 98 107
139 687 170 92 98 107
139 687 171 93 99 108
137 684 174 79 84 91
137 684 175 78 83 91
137 685 174 79 85 93
137 685 175 78 84 92
137 686 173 80 86 94
137 687 173 81 87 95
136 687 175 76 82 90
137 686 174 79 85 93
137 686 175 77 83 92
137 687 174 78 84 92
137 687 175 77 83 91
138 684 172 81 86 95
138 684 173 80 86 94
138 685 172 85 91 100
138 685 173 82 88 96
139 684 172 82 87 96
138 686 172 87 93 102
138 686 173 81 87 96
138 687 172 90 96 105
138 687 173 84 90 98
140 681 169 81 87 96
141 680 168 92 98 107
141 680 169 91 97 105
141 681 168 81 88 97
141 681 169 82 88 97
140 680 170 84 90 98
140 680 171 82 87 96
140 681 170 80 86 94
140 682 169 79 85 94
140 683 169 80 86 94
141 682 168 80 87 95
141 682 169 79 86 94
141 683 168 81 87 95
141 683 169 80 86 94
140 682 170 79 85 93
140 683 170 80 86 94
142 680 168 90 96 105
142 681 168 84 90 99
140 684 169 83 88 97
140 685 169 85 91 100
141 684 168 82 88 96
141 685 168 84 90 98
140 684 170 84 89 98
140 685 170 87 93 102
140 686 168 85 90 99
140 686 169 87 93 102
140 687 169 86 92 101
141 686 168 84 90 98
141 687 168 83 88 97
135 672 183 75 80 88
135 673 182 83 88 96
135 673 183 83 88 96
135 674 181 80 84 92
135 675 181 74 79 86
135 674 182 82 87 94
135 674 183 85 89 97
135 675 182 75 80 87
135 675 183 74 79 87
135 677 179 76 81 89
135 678 179 77 82 90
135 679 178 77 83 91
135 679 179 76 82 90
135 676 180 73 78 85
135 676 181 72 76 84
135 677 180 75 80 87
135 677 181 73 77 84
134 676 183 71 75 82
134 677 182 72 76 83
134 677 183 71 76 83
135 676 182 72 76 83
135 676 183 71 76 83
135 677 182 72 76 83
134 679 181 72 77 84
135 678 180 74 80 87
135 678 181 72 77 84
135 679 180 74 79 87
135 679 181 71 77 84
134 678 182 71 76 83
134 678 183 71 76 83
134 679 182 70 75 83
134 679 183 71 75 82
131 678 190 67 71 78
131 678 191 67 71 78
131 679 190 67 73 79
131 679 191 67 72 79
133 672 187 71 76 83
133 673 187 73 79 86
133 674 186 71 77 85
133 674 187 74 79 88
133 675 186 72 78 87
133 675 187 78 83 92
134 672 185 72 77 85
134 673 184 77 83 91
134 673 185 74 80 88
135 672 184 72 78 86
135 672 185 72 77 85
135 673 184 78 83 92
134 672 186 71 77 84
134 672 187 71 76 83
134 673 186 74 79 87
134 673 187 72 78 85
134 674 184 79 84 91
134 674 185 71 77 86
134 675 184 72 77 85
134 675 185 69 75 83
135 674 184 81 86 94
134 674 186 71 77 85
134 675 186 70 76 85
133 672 188 72 76 83
133 672 189 71 75 82
133 673 188 73 78 85
133 673 189 72 77 84
132 672 191 71 78 86
132 673 190 69 75 82
132 673 191 69 75 83
133 672 190 72 78 85
133 672 191 74 80 88
133 673 190 71 76 83
132 675 189 81 85 92
133 674 188 74 80 87
133 674 189 74 79 86
133 675 188 83 88 95
133 675 189 80 84 92
132 674 190 71 76 84
132 674 191 69 75 82
132 675 190 74 79 87
132 675 191 71 76 83
133 674 190 73 78 85
133 676 185 68 74 82
133 677 184 69 74 81
133 677 185 69 74 82
133 676 186 69 75 84
133 676 187 74 80 88
133 677 186 69 74 82
133 677 187 69 74 82
133 678 184 70 75 82
133 678 185 68 74 81
133 679 184 70 75 82
133 679 185 68 73 81
132 678 187 67 73 80
132 679 186 68 74 82
132 679 187 69 75 83
133 678 186 67 73 81
133 678 187 68 73 81
133 679 186 68 73 81
134 676 184 69 75 82
134 676 185 68 74 81
134 677 184 70 74 81
134 678 184 71 76 82
134 679 184 70 75 82
132 676 188 81 86 94
132 676 189 81 85 92
132 677 188 72 77 84
132 677 189 71 75 82
133 676 188 79 83 91
132 676 190 75 79 86
132 676 191 71 75 82
132 677 190 71 75 82
132 677 191 70 74 81
132 678 188 68 73 80
132 678 189 68 73 80
132 679 188 69 75 83
132 679 189 69 75 82
132 678 190 68 72 79
132 678 191 68 72 79
132 679 190 67 72 79
135 680 178 76 82 91
135 680 179 75 81 90
135 681 178 79 85 94
135 681 179 81 87 95
135 682 178 86 91 100
135 682 179 90 96 104
135 683 178 85 91 100
135 683 179 87 93 102
133 680 183 72 77 84
133 681 183 70 76 83
133 682 182 74 79 86
133 682 183 72 78 85
133 683 182 75 81 89
133 683 183 73 79 87
134 680 180 73 79 86
134 680 181 73 78 85
134 681 180 75 80 87
134 681 181 73 78 86
135 680 180 74 80 88
135 681 180 78 84 91
134 680 182 72 77 84
134 680 183 72 77 84
134 681 182 72 77 84
134 681 183 71 76 83
134 682 180 85 90 97
134 682 181 76 82 89
134 683 180 86 92 100
134 683 181 79 86 94
135 682 180 89 94 102
135 683 180 87 93 102
134 682 182 74 79 87
134 683 182 76 83 91
135 685 177 83 89 98
135 684 178 84 91 100
135 684 179 85 91 100
135 685 178 84 90 100
135 685 179 85 92 101
135 686 177 85 91 100
135 687 177 82 88 97
134 686 179 82 89 98
134 687 178 79 85 94
134 687 179 79 86 95
135 686 178 84 91 100
135 686 179 83 89 99
135 687 178 83 89 98
133 685 181 82 90 99
132 685 183 80 85 93
133 684 182 80 87 96
133 684 183 77 83 91
133 685 182 81 88 98
133 685 183 82 88 96
133 686 181 80 87 97
133 687 180 80 87 96
133 687 181 82 88 98
132 686 183 76 82 90
132 687 183 75 80 89
133 686 182 80 87 96
133 686 183 79 86 94
133 687 182 81 87 96
134 684 180 83 90 100
134 684 181 83 90 100
134 685 180 84 92 102
134 685 181 82 90 100
135 684 180 83 90 100
134 686 180 80 87 97
134 686 181 78 86 96
134 687 180 79 86 95
131 680 189 78 83 91
131 681 189 82 88 96
131 680 190 71 76 84
131 680 191 67 73 80
131 681 190 76 82 89
131 681 191 71 77 85
131 682 188 79 86 94
131 682 189 79 85 93
131 683 188 71 78 86
131 683 189 71 78 86
131 682 190 75 81 89
131 682 191 72 77 85
131 683 190 71 76 84
131 683 191 68 73 81
131 684 187 68 73 81
131 685 187 67 73 80
131 686 185 66 72 80
131 687 185 67 73 80
131 686 186 67 72 80
131 686 187 67 73 80
131 687 186 68 74 81
131 687 187 68 73 81
131 684 188 68 74 81
131 684 189 68 74 81
131 685 188 68 73 80
131 685 189 68 73 80
131 684 190 68 73 81
131 684 191 67 72 79
131 685 190 68 73 80
131 685 191 68 73 79
131 686 188 68 73 80
131 686 189 69 74 82
131 687 188 70 74 82
131 687 189 73 78 85
131 686 190 69 74 81
131 686 191 70 76 83
131 687 190 74 79 87
131 687 191 76 82 90
132 681 185 73 79 86
133 680 184 70 76 83
133 680 185 71 76 83
133 681 184 71 77 84
133 681 185 72 77 85
132 680 186 72 78 86
132 680 187 73 80 88
132 681 186 75 81 89
132 681 187 77 84 92
132 682 185 74 79 87
132 683 184 69 75 83
132 683 185 69 75 83
133 682 184 71 77 84
133 682 185 73 78 86
133 683 184 70 76 84
132 682 186 76 82 90
132 682 187 77 83 91
132 683 186 70 77 85
132 683 187 70 77 85
132 680 188 77 83 92
132 680 189 74 80 88
132 681 188 82 88 97
132 681 189 81 87 95
132 682 188 79 85 94
132 683 188 72 79 87
132 684 184 71 76 84
132 684 185 70 76 83
132 685 184 75 81 89
132 685 185 70 76 83
133 684 184 71 77 85
132 684 186 69 75 83
132 684 187 68 74 82
132 685 186 68 74 82
132 686 184 74 80 88
132 686 185 68 74 82
132 687 184 70 76 83
132 687 185 67 73 80
132 686 186 67 73 80
137 672 177 77 82 89
137 673 177 80 85 93
136 673 179 74 80 89
137 672 178 76 82 89
137 672 179 75 80 88
137 673 178 76 82 90
137 673 179 76 82 90
137 674 176 84 90 98
137 674 177 80 86 94
137 675 176 85 90 99
137 675 177 81 86 95
136 674 179 74 80 89
136 675 178 75 80 88
136 675 179 74 80 89
137 674 178 77 82 91
137 674 179 74 80 88
137 675 178 77 82 90
138 672 176 76 81 89
138 672 177 76 82 90
138 673 176 79 85 93
138 673 177 80 85 93
138 674 176 82 88 96
138 675 176 85 91 99
136 672 180 74 80 88
136 672 181 75 81 89
136 673 180 76 82 90
136 673 181 80 85 93
137 672 180 75 81 89
136 672 182 75 80 88
136 673 182 81 86 94
136 674 180 75 80 88
136 674 181 78 83 91
136 675 180 73 79 87
136 676 177 76 81 89
136 677 177 77 82 90
137 676 176 82 88 96
137 676 177 78 84 92
137 677 176 78 85 93
137 677 177 77 83 91
136 676 178 76 82 90
136 676 179 75 80 88
136 677 178 77 82 90
136 677 179 77 82 90
136 678 177 77 83 91
136 679 176 79 85 94
136 679 177 77 83 91
137 678 176 78 85 94
137 679 176 79 86 95
136 678 178 78 83 91
136 678 179 77 82 90
136 679 178 76 82 90
136 676 180 74 79 87
136 680 176 78 85 93
136 680 177 76 82 91
136 681 176 78 84 92
136 681 177 76 82 91
137 680 176 80 86 96
136 680 178 77 83 91
136 682 176 76 82 90
136 682 177 79 84 93
136 683 176 77 82 90
136 683 177 79 85 94
136 684 176 78 84 92
136 684 177 81 87 95
136 685 176 78 84 92
136 685 177 80 86 95
136 686 176 80 87 95
136 686 177 83 89 98
136 687 176 79 85 93
136 687 177 84 90 98
135 691 175 75 81 89
135 692 174 80 86 95
135 692 175 79 85 93
135 693 174 84 90 98
135 693 175 84 90 98
135 694 173 84 89 98
135 695 173 81 87 95
134 694 175 84 90 98
134 695 175 80 86 94
135 694 174 86 92 100
135 694 175 86 92 100
135 695 174 83 89 97
133 699 175 76 82 91
135 696 173 77 84 92
135 697 173 81 87 96
134 696 174 78 84 93
134 696 175 77 83 91
134 697 174 76 82 91
134 697 175 74 80 88
135 696 174 79 85 93
135 697 174 78 84 92
134 699 173 86 92 100
135 698 173 88 93 102
135 699 172 89 95 104
135 699 173 89 94 103
134 698 174 79 85 94
134 698 175 77 83 91
134 699 174 82 88 97
134 699 175 78 84 92
133 700 175 74 80 89
133 701 175 76 82 90
133 702 175 76 82 90
133 703 175 78 84 92
134 700 173 84 89 98
134 701 173 82 88 96
135 700 172 86 92 101
135 700 173 86 92 101
135 701 172 82 88 97
135 701 173 82 88 97
134 700 174 79 85 94
134 700 175 76 82 91
134 701 174 78 84 93
134 701 175 76 82 91
134 702 173 79 84 93
134 703 173 78 84 92
135 702 172 80 85 94
135 703 172 80 86 95
134 702 174 76 82 91
134 703 174 76 82 90
141 688 167 81 87 96
141 689 167 81 86 95
141 690 167 81 87 96
141 691 167 82 88 96
143 688 165 83 89 98
143 689 165 85 91 100
142 688 166 82 88 97
142 688 167 81 86 95
142 689 166 83 88 97
142 690 165 84 90 99
142 691 165 83 89 98
143 690 165 86 92 101
143 691 165 85 91 100
142 690 166 83 88 97
142 691 166 82 88 96
141 692 166 84 90 99
141 692 167 85 91 100
141 693 166 85 91 99
141 693 167 88 93 102
140 695 167 80 86 95
141 694 166 79 85 94
141 694 167 81 87 96
141 695 166 79 85 93
141 695 167 79 85 94
142 692 165 83 89 98
142 693 165 82 88 97
143 692 165 83 90 99
143 693 164 84 90 99
143 693 165 82 88 97
142 692 166 83 89 98
142 693 166 83 89 98
142 695 165 81 87 95
143 694 164 82 88 98
143 694 165 81 88 97
143 695 164 82 88 97
143 695 165 81 87 96
142 694 166 80 86 95
142 695 166 81 86 95
139 688 169 94 100 109
139 689 169 89 94 103
138 688 171 92 98 107
138 689 171 86 92 100
139 688 170 94 99 108
139 688 171 94 100 109
139 689 170 87 93 102
139 690 169 80 86 94
139 691 169 78 84 93
138 690 171 78 84 93
138 691 170 77 83 90
138 691 171 75 80 88
139 690 170 79 85 94
139 691 170 77 83 91
137 688 173 81 87 95
137 689 173 75 82 91
136 688 175 75 81 89
136 689 174 74 80 88
136 689 175 74 80 88
137 688 174 77 83 91
137 688 175 75 81 89
137 689 174 75 81 89
136 691 173 74 80 89
137 690 172 75 81 90
137 690 173 74 80 89
137 691 172 73 79 87
137 691 173 73 80 88
136 690 174 75 80 88
136 690 175 75 80 89
136 691 174 75 80 89
136 691 175 75 81 89
138 688 172 89 95 103
138 688 173 83 89 98
138 689 172 82 88 97
138 690 172 76 82 91
138 691 172 74 80 88
137 692 171 75 80 88
137 693 171 76 81 89
137 694 171 76 82 90
137 695 170 78 83 91
137 695 171 76 82 90
139 692 169 78 84 92
139 693 169 79 85 93
138 692 170 75 80 88
138 692 171 75 80 87
138 693 170 76 81 89
138 693 171 77 82 90
139 692 170 76 82 90
139 693 170 77 83 91
139 694 169 80 85 93
139 695 168 81 86 95
139 695 169 80 86 94
138 694 170 78 83 91
138 694 171 77 82 90
138 695 170 80 85 92
139 694 170 78 84 91
136 692 173 76 83 91
136 693 172 76 83 91
136 693 173 78 85 94
137 692 172 74 80 88
137 692 173 74 81 89
137 693 172 75 81 90
136 692 174 78 84 92
136 693 174 81 87 96
136 694 172 78 84 93
136 694 173 81 87 96
136 695 172 77 83 92
136 695 173 80 86 95
137 694 172 77 83 91
140 688 168 84 90 99
140 688 169 90 96 104
140 689 168 84 90 98
140 689 169 87 93 102
141 688 168 82 88 97
141 689 168 82 88 96
140 690 168 81 87 96
140 690 169 82 88 96
140 691 168 81 87 95
140 691 169 80 85 94
141 690 168 81 87 96
141 691 168 81 87 96
140 692 168 85 90 98
140 692 169 81 86 94
140 693 168 87 92 101
140 693 169 84 89 97
140 694 168 81 87 95
140 695 168 80 86 94
139 702 167 79 85 94
139 703 167 81 87 95
140 696 167 80 86 96
140 697 167 85 91 101
141 696 166 79 85 94
141 696 167 79 86 95
141 697 166 83 88 97
141 697 167 85 91 100
140 698 167 88 95 105
140 699 167 87 93 103
141 698 166 85 91 100
141 698 167 86 93 102
141 699 166 84 90 99
141 699 167 86 92 102
142 696 165 82 87 95
142 697 165 83 88 97
143 696 164 81 87 95
143 696 165 81 87 95
143 697 164 81 87 96
143 697 165 82 88 97
142 696 166 81 86 95
142 697 166 83 89 97
142 698 165 83 88 97
142 699 165 84 89 98
143 698 164 80 86 94
143 699 164 82 88 96
142 698 166 85 90 99
143 700 163 81 87 96
143 701 163 83 89 98
143 702 163 86 92 101
143 703 163 90 96 105
140 700 167 83 89 98
140 701 167 80 86 95
141 700 166 83 89 98
141 701 166 80 86 95
141 702 165 80 86 95
141 703 165 82 88 98
140 702 167 79 85 94
140 703 166 80 86 95
140 703 167 81 87 95
141 702 166 79 85 94
141 703 166 80 86 95
142 700 165 83 88 97
142 701 164 81 87 96
142 701 165 81 87 95
143 700 164 81 87 96
143 701 164 81 87 96
142 702 164 83 89 98
142 702 165 81 87 96
142 703 164 87 93 102
142 703 165 85 91 100
143 702 164 86 92 101
143 703 164 88 94 103
136 697 171 82 88 96
137 696 170 79 85 93
137 696 171 77 83 91
137 697 170 81 87 95
137 697 171 81 87 95
136 698 171 84 90 99
136 699 171 83 89 99
137 698 170 83 88 97
137 698 171 83 89 98
137 699 170 82 88 97
137 699 171 82 88 97
138 696 169 82 87 96
138 697 169 84 90 98
139 696 168 82 88 96
139 696 169 82 87 96
139 697 168 87 93 102
139 697 169 86 91 100
138 696 170 81 86 94
138 697 170 82 88 96
138 698 169 86 92 100
138 699 169 85 91 99
139 698 168 91 97 106
139 698 169 89 94 103
139 699 168 87 93 102
139 699 169 88 93 102
138 698 170 84 90 98
138 699 170 84 89 98
136 696 172 76 82 91
136 696 173 77 83 92
136 697 172 83 88 97
136 698 172 89 95 104
136 699 172 86 92 101
136 700 171 83 89 98
136 701 171 82 88 97
137 700 170 82 87 96
137 701 170 81 87 96
137 702 169 82 88 96
137 703 169 84 90 99
136 702 171 82 88 96
136 703 171 83 89 97
137 702 170 83 88 97
137 703 170 83 89 98
138 700 169 80 86 95
138 701 169 80 86 94
139 700 168 82 88 97
139 700 169 79 85 94
139 701 168 80 86 95
138 700 170 81 87 95
138 701 170 81 86 95
138 702 169 81 86 95
138 703 168 82 88 97
138 703 169 82 88 97
139 702 168 79 85 94
139 703 168 81 87 96
136 700 172 85 91 100
136 701 172 82 88 97
136 702 172 81 86 95
140 696 168 81 87 96
140 697 168 87 93 102
140 699 168 88 94 104
131 691 183 69 74 81
131 692 182 73 78 86
131 692 183 70 75 82
131 693 182 77 82 89
131 693 183 72 77 84
131 695 181 71 77 84
131 694 182 74 80 87
131 694 183 72 77 84
131 695 182 70 75 83
131 695 183 70 75 83
133 689 179 73 79 87
133 690 179 72 78 86
133 691 179 72 78 86
134 689 177 73 79 88
135 688 177 74 81 89
135 689 176 75 81 88
135 689 177 73 79 87
134 688 178 73 80 89
134 688 179 74 81 89
134 689 178 72 79 87
134 689 179 72 79 87
135 688 178 77 83 92
134 690 177 72 78 86
134 691 177 73 79 86
135 690 176 74 80 88
135 690 177 73 79 86
135 691 176 75 80 88
135 691 177 73 79 86
134 690 178 72 78 86
134 690 179 72 78 86
134 691 178 72 78 86
133 688 180 78 85 94
133 688 181 81 87 96
133 689 180 76 82 91
133 689 181 77 83 91
132 688 182 77 83 91
132 688 183 74 79 87
132 689 182 73 79 87
132 689 183 69 75 82
133 688 182 80 86 94
132 690 181 71 77 84
132 691 181 72 79 87
133 690 180 72 78 86
133 690 181 73 79 87
133 691 180 72 78 87
133 691 181 72 78 87
132 690 182 71 76 83
132 690 183 70 75 83
132 691 182 71 76 84
132 691 183 70 76 83
134 688 180 76 83 92
133 693 177 74 79 87
132 693 179 73 79 87
133 692 178 70 76 84
133 692 179 71 77 85
133 693 178 71 77 85
133 693 179 72 78 86
133 694 177 75 80 88
133 695 177 75 80 88
132 694 179 72 78 86
132 695 178 73 79 87
132 695 179 73 79 87
133 694 178 74 79 87
133 694 179 73 78 86
133 695 178 74 80 88
134 692 176 76 81 89
134 692 177 73 79 86
134 693 176 80 85 93
134 693 177 74 80 88
135 692 176 78 83 92
134 692 178 71 77 85
134 694 176 80 86 94
134 694 177 76 81 89
134 695 176 77 82 90
134 695 177 75 81 89
132 692 180 81 86 94
132 692 181 80 85 93
132 693 180 81 86 94
132 693 181 84 89 97
133 692 180 75 81 89
132 692 182 74 80 88
132 693 182 81 86 93
132 694 180 73 79 87
132 694 181 75 81 89
132 695 180 74 79 87
132 695 181 71 77 85
131 688 185 69 74 81
131 689 184 68 73 81
131 689 185 68 73 80
131 688 186 70 75 82
131 688 187 70 76 83
131 689 186 69 74 81
131 689 187 70 75 82
131 690 184 69 75 82
131 690 185 69 74 81
131 691 184 69 75 83
131 691 185 69 75 82
131 690 186 70 74 81
131 690 187 70 75 82
131 691 186 71 76 83
131 691 187 70 75 83
131 688 188 71 77 84
131 688 189 76 82 90
131 689 188 72 78 85
131 689 189 77 83 91
130 689 191 85 91 100
131 688 190 81 87 95
131 688 191 82 88 96
131 689 190 82 88 97
131 689 191 82 88 97
131 690 188 72 78 85
131 690 189 78 83 92
131 691 188 71 76 84
131 691 189 72 78 87
130 690 191 86 92 101
130 691 190 74 80 89
130 691 191 82 88 96
131 690 190 81 87 96
131 691 190 76 82 91
131 692 184 68 73 80
131 692 185 68 73 81
131 693 184 68 74 81
131 693 185 68 74 82
131 692 186 69 74 82
131 692 187 69 74 82
131 693 186 70 75 83
131 693 187 71 76 84
131 694 184 69 75 82
131 694 185 70 76 83
131 695 184 69 74 82
131 695 185 70 75 83
131 694 186 75 80 88
131 694 187 78 83 91
131 695 186 72 77 84
131 695 187 76 81 88
130 692 189 68 74 82
130 693 189 69 74 82
131 692 188 69 75 83
131 692 189 69 75 84
131 693 188 70 75 83
130 692 190 69 75 83
130 692 191 69 75 83
130 693 190 68 73 81
130 693 191 66 71 79
130 694 188 72 77 85
130 694 189 69 75 82
130 695 188 74 79 87
130 695 189 71 76 83
131 694 188 74 80 87
130 694 190 67 72 80
130 694 191 67 72 78
130 695 190 69 74 81
130 695 191 67 72 78
132 688 184 68 74 81
132 689 184 68 74 81
132 690 184 69 74 82
131 696 181 75 80 87
131 697 181 73 78 85
131 696 182 73 78 85
131 696 183 70 75 82
131 697 182 72 76 84
131 697 183 70 75 82
131 698 180 70 75 83
131 698 181 71 76 84
131 699 180 70 76 83
131 699 181 69 75 83
131 698 182 71 76 83
131 698 183 70 74 81
131 699 182 69 74 81
131 699 183 71 75 81
131 700 180 70 76 84
131 700 181 69 75 83
131 701 180 72 78 86
131 701 181 70 76 84
130 701 183 70 75 82
131 700 182 69 74 81
131 700 183 71 75 82
131 701 182 70 75 82
131 701 183 71 75 82
131 702 180 78 84 92
131 702 181 74 80 88
131 703 180 82 88 97
131 703 181 79 85 93
130 702 183 69 74 81
130 703 183 69 74 82
131 702 182 71 76 84
131 702 183 70 75 82
131 703 182 74 80 87
131 703 183 71 76 83
133 696 176 76 82 90
133 696 177 74 80 88
