ply
format ascii 1.0
element vertex 2181
property float x
property float y
property float z
property uchar red
property uchar green
property uchar blue
end_header
125 132 233 37 45 52
125 133 232 38 45 53
125 133 233 39 45 53
124 132 234 40 45 52
124 132 235 40 46 53
124 133 234 41 46 53
124 133 235 40 46 53
125 133 234 40 46 53
125 134 232 38 45 53
125 134 233 38 44 52
125 135 232 38 45 53
125 135 233 38 45 52
124 134 235 40 46 53
124 135 234 38 45 52
124 135 235 37 44 51
125 134 234 39 45 52
125 135 234 38 44 51
124 132 236 40 46 53
124 133 236 40 46 53
124 134 236 38 45 53
124 135 236 36 43 52
125 138 227 42 49 57
125 139 226 43 50 58
125 139 227 42 49 57
126 136 224 47 53 60
126 136 225 44 50 57
126 137 224 46 53 61
126 137 225 43 50 58
126 136 226 43 50 57
126 136 227 41 48 56
126 137 226 42 49 57
126 137 227 40 47 55
126 138 224 48 55 63
126 138 225 44 51 59
126 139 224 45 52 61
126 139 225 44 52 60
126 138 226 43 50 58
126 138 227 43 50 57
126 139 226 43 51 59
125 136 229 40 47 56
125 137 228 38 46 54
125 137 229 38 46 55
125 136 230 37 46 54
125 136 231 36 44 52
125 137 230 36 45 53
125 137 231 36 44 53
125 138 228 41 48 56
125 138 229 41 49 57
125 139 228 42 49 57
125 139 229 42 50 58
125 138 230 38 47 55
125 138 231 37 46 54
125 139 230 40 48 57
125 139 231 39 47 55
126 136 228 40 48 56
126 136 229 41 48 57
126 137 228 38 46 54
126 137 229 40 47 56
125 140 224 48 54 61
125 140 225 44 51 59
125 141 224 48 55 62
125 141 225 46 52 59
125 140 226 44 51 59
125 140 227 43 50 58
125 141 226 45 51 59
125 141 227 45 51 59
125 142 224 50 56 64
125 142 225 47 53 60
125 143 224 48 55 62
125 143 225 48 53 60
125 142 226 45 50 57
125 142 227 45 51 57
125 143 226 44 49 56
125 143 227 42 48 55
126 140 224 47 53 61
125 140 228 44 50 58
125 140 229 46 52 60
125 141 228 45 51 59
125 141 229 46 52 59
125 140 230 42 49 58
125 140 231 39 47 55
125 141 230 42 49 57
125 141 231 37 45 54
125 142 228 47 53 60
125 142 229 47 53 61
125 143 228 45 51 58
125 143 229 47 53 60
125 142 230 42 49 57
125 142 231 37 45 54
125 143 230 44 50 58
125 143 231 38 46 54
123 136 237 37 45 53
123 136 238 37 45 53
123 136 239 36 44 52
123 137 238 36 44 53
123 137 239 37 45 53
123 138 238 36 44 52
123 138 239 37 44 52
123 139 239 36 44 52
123 140 239 36 44 52
125 136 232 39 45 53
125 136 233 40 46 54
125 137 232 38 45 53
125 137 233 40 47 54
124 136 234 38 45 52
124 136 235 37 45 52
124 137 234 40 46 54
124 137 235 39 46 53
125 136 234 39 45 52
125 137 234 41 47 54
125 138 232 37 45 53
125 138 233 38 45 53
125 139 232 38 46 54
125 139 233 37 44 53
124 138 235 39 46 53
124 139 235 38 45 53
125 138 234 40 46 54
125 138 235 39 46 54
125 139 234 38 45 53
125 139 235 38 45 53
124 136 236 36 44 52
124 136 237 36 44 53
124 137 236 37 45 53
124 137 237 35 44 53
124 137 238 36 44 53
124 138 236 37 45 53
124 138 237 33 42 51
124 139 236 38 45 53
124 139 237 34 43 52
124 138 238 34 43 52
124 139 238 35 44 53
125 140 232 38 46 54
125 140 233 36 44 53
125 141 232 34 44 52
125 141 233 34 43 52
125 140 234 37 44 52
125 140 235 37 45 53
125 141 234 35 43 51
125 141 235 35 43 52
125 142 232 34 43 52
125 142 233 34 43 52
125 143 232 36 45 53
125 143 233 36 44 53
125 142 234 36 44 53
125 142 235 35 44 52
125 143 234 37 45 53
125 143 235 37 45 53
124 140 236 37 45 53
124 140 237 36 44 53
124 141 236 35 44 52
124 141 237 35 44 52
125 141 236 35 43 52
124 140 238 36 44 53
124 140 239 36 44 53
124 141 238 37 45 54
124 141 239 36 45 53
124 142 236 36 44 53
124 142 237 35 44 52
124 143 236 37 46 54
124 143 237 38 46 54
125 142 236 35 44 53
125 143 236 37 45 54
124 142 238 35 44 52
124 142 239 37 45 54
124 143 238 37 45 53
124 143 239 36 45 53
115 128 247 39 46 53
119 128 241 40 46 54
119 129 241 38 45 52
118 128 243 36 43 51
118 129 243 37 44 52
119 128 242 37 44 52
119 128 243 37 44 52
119 129 242 38 44 52
119 129 243 38 44 52
119 130 242 37 44 51
119 130 243 37 44 52
119 131 243 35 43 50
117 128 244 37 43 50
117 128 245 36 42 49
117 129 245 38 44 50
116 128 246 37 43 50
116 128 247 38 44 51
116 129 246 37 43 50
116 129 247 38 44 51
117 129 246 37 43 50
117 130 245 39 44 51
116 130 247 38 44 51
117 130 246 38 44 51
117 130 247 37 43 50
117 131 246 36 43 51
117 131 247 35 43 50
118 128 244 37 43 50
118 129 244 38 45 51
118 130 244 38 44 51
118 130 245 38 44 51
118 131 245 36 44 51
119 130 244 37 44 51
119 131 244 35 43 51
118 131 246 35 43 51
119 132 243 35 43 51
117 132 246 35 43 52
117 132 247 36 44 53
117 133 247 35 44 52
117 134 247 35 43 52
118 132 245 36 44 52
119 132 244 35 43 51
119 132 245 36 44 52
119 133 244 35 43 51
119 133 245 37 45 53
118 132 246 35 43 52
118 133 246 36 44 53
118 133 247 35 44 52
119 134 244 36 44 52
119 134 245 37 44 52
119 135 245 36 44 52
118 134 246 37 45 53
118 134 247 36 44 53
118 135 246 38 45 53
118 135 247 38 45 53
119 134 246 37 45 53
119 135 246 36 44 52
112 128 251 40 46 53
113 128 250 39 46 54
113 128 251 39 45 52
113 129 251 38 45 51
113 130 251 38 44 51
114 128 248 40 47 54
114 128 249 40 47 54
114 129 249 40 47 54
115 128 248 39 46 53
115 129 248 39 46 53
115 129 249 40 47 54
114 128 250 40 47 54
114 129 250 38 45 53
114 129 251 37 44 52
115 130 248 38 45 52
115 130 249 38 45 53
115 131 249 38 45 52
114 130 250 36 44 52
114 130 251 38 44 52
114 131 251 39 45 52
115 130 250 37 45 53
115 131 250 37 45 53
112 128 252 39 45 52
112 128 253 38 44 52
112 129 252 38 44 51
112 129 253 37 44 51
113 129 252 39 45 51
112 130 253 37 43 51
113 130 252 38 44 51
113 130 253 37 44 51
113 131 252 37 43 49
113 131 253 37 43 50
112 130 254 37 44 51
112 131 254 38 45 52
114 131 252 38 44 51
115 132 249 38 45 53
114 132 251 40 46 53
114 133 251 39 45 53
115 132 250 40 46 53
115 132 251 40 46 53
115 133 250 40 46 53
115 133 251 39 45 53
114 134 251 39 45 53
115 134 250 38 45 52
115 134 251 39 45 52
115 135 250 38 44 51
115 135 251 38 45 52
113 132 252 38 44 51
113 132 253 38 44 51
113 133 253 38 44 51
112 132 254 38 45 52
112 132 255 37 44 52
112 133 254 38 45 53
112 133 255 37 44 52
113 132 254 38 44 52
113 133 254 37 44 52
113 134 253 37 44 51
112 134 254 37 45 53
112 134 255 37 44 52
112 135 255 37 44 52
113 134 254 37 44 51
113 135 254 36 44 51
113 135 255 36 44 52
114 132 252 39 45 52
114 133 252 39 45 53
114 134 252 38 45 52
114 134 253 37 44 51
114 135 252 38 45 52
114 135 253 38 44 51
115 135 252 38 45 52
114 135 254 36 43 51
116 129 248 38 45 52
116 130 248 38 44 52
116 131 248 37 44 52
116 131 249 37 45 52
116 132 248 36 45 53
116 132 249 39 46 54
116 133 248 35 44 53
116 133 249 39 46 54
117 132 248 35 44 53
117 133 248 34 43 52
116 134 248 36 44 52
116 134 249 38 45 53
116 135 249 38 45 52
117 134 248 35 43 52
117 135 248 37 44 52
117 135 249 37 44 52
116 134 250 38 45 52
116 135 250 38 44 51
119 136 245 36 44 52
119 137 245 36 44 52
118 136 247 38 46 53
118 137 247 38 45 53
119 136 246 37 44 52
119 137 246 36 44 52
119 137 247 37 45 53
118 138 247 38 45 53
118 139 247 37 45 54
119 138 246 35 43 51
119 138 247 37 45 53
119 139 246 34 43 51
119 139 247 36 44 52
119 140 246 36 44 52
119 140 247 36 44 52
119 141 247 36 44 52
115 136 251 38 45 52
115 137 251 39 45 52
112 136 255 36 44 52
113 136 254 35 43 51
113 136 255 35 43 51
113 137 254 34 42 51
113 137 255 36 43 51
113 138 255 36 44 52
114 136 252 38 45 53
114 136 253 37 44 52
114 137 253 38 45 52
115 136 252 38 45 53
115 137 252 39 46 53
115 137 253 38 45 53
114 136 254 35 43 51
114 137 254 36 43 51
115 138 252 39 46 54
115 138 253 38 45 53
115 139 253 38 45 53
114 138 254 37 44 52
114 138 255 37 44 52
114 139 254 37 44 52
114 139 255 36 44 52
115 138 254 38 45 52
115 139 254 38 45 52
114 140 255 37 44 52
114 141 255 38 45 53
115 140 254 37 45 52
115 141 254 38 45 53
115 141 255 38 45 53
115 142 254 37 45 52
115 142 255 37 45 52
115 143 255 37 44 52
116 136 249 39 45 52
116 137 249 38 44 52
117 136 248 39 46 53
117 136 249 38 45 53
117 137 248 38 46 53
117 137 249 38 45 52
116 136 250 40 45 52
116 136 251 39 45 51
116 137 250 39 45 52
116 137 251 39 45 52
117 138 249 38 45 52
117 139 249 38 44 52
116 138 250 39 45 52
116 138 251 39 45 52
116 139 251 39 45 52
117 138 250 39 45 52
117 139 250 39 45 52
117 139 251 39 45 52
118 136 248 39 46 54
118 137 248 39 46 53
118 138 248 37 45 53
118 139 248 37 45 53
118 139 249 38 45 53
116 138 252 39 46 53
116 139 252 39 45 53
116 139 253 38 45 53
117 140 249 38 45 52
116 140 251 37 44 51
117 140 250 38 44 52
117 140 251 38 44 51
117 141 251 38 45 52
117 142 251 39 45 52
118 140 248 36 44 52
118 140 249 37 45 52
118 141 249 38 45 53
119 140 248 36 44 53
119 141 248 37 45 53
119 141 249 37 45 53
118 140 250 38 45 52
118 141 250 37 44 52
118 142 249 38 45 52
119 142 248 37 45 53
119 142 249 38 45 53
119 143 248 37 44 52
119 143 249 38 45 52
118 142 250 38 45 52
118 142 251 39 45 52
118 143 250 38 44 51
118 143 251 38 44 51
119 143 250 36 43 50
116 140 252 37 44 52
116 140 253 37 45 53
116 141 252 37 44 52
116 141 253 37 45 53
117 141 252 37 44 52
116 141 254 38 45 53
116 142 253 37 45 53
117 142 252 38 45 53
117 142 253 37 45 53
117 143 252 38 44 52
117 143 253 37 44 53
116 142 254 37 45 53
116 143 254 37 44 53
116 143 255 37 45 53
120 128 240 38 45 53
120 129 240 38 45 53
120 129 241 38 45 53
120 130 240 37 45 53
120 130 241 37 44 52
120 131 240 36 43 51
120 131 241 36 44 52
121 130 240 37 45 53
121 131 240 35 43 52
120 130 242 36 43 51
120 131 242 36 43 51
120 131 243 35 43 50
120 132 241 36 44 52
121 132 240 35 43 52
121 132 241 35 43 52
121 133 240 36 44 52
121 133 241 36 43 51
120 132 242 35 43 52
120 132 243 35 43 51
120 133 242 36 44 52
120 133 243 37 44 52
121 132 242 34 43 51
121 133 242 35 43 51
121 134 241 36 43 51
120 134 243 38 44 52
121 134 242 36 44 52
121 134 243 37 44 52
121 135 242 37 44 52
121 135 243 37 44 52
122 133 240 37 44 51
122 134 240 37 44 52
122 134 241 37 44 51
122 135 240 37 44 52
122 135 241 37 44 52
122 135 242 36 43 51
120 133 244 36 43 51
120 134 244 36 43 51
120 135 244 36 44 52
121 136 242 37 44 53
121 136 243 37 45 53
121 137 242 36 44 52
121 137 243 37 45 53
121 138 243 37 44 53
121 139 243 37 45 52
122 136 240 36 44 52
122 136 241 35 43 51
122 137 241 35 43 51
123 136 240 36 44 52
123 137 240 37 44 52
122 136 242 36 43 52
122 137 242 36 44 52
122 138 241 36 44 52
122 139 241 36 44 52
123 138 240 36 44 52
123 138 241 37 44 52
123 139 240 35 43 52
123 139 241 36 44 52
122 138 242 37 44 53
122 138 243 37 45 53
122 139 242 37 45 53
122 139 243 38 45 53
120 136 244 37 45 53
120 136 245 37 44 52
120 137 244 37 45 53
120 137 245 37 44 52
120 138 244 37 45 53
120 138 245 36 44 52
120 139 244 37 44 52
120 139 245 36 44 52
121 138 244 37 45 52
121 139 244 37 44 52
120 139 246 35 43 51
121 140 243 38 45 53
122 140 241 36 44 53
123 140 240 35 43 52
123 140 241 36 44 53
123 141 240 34 43 52
123 141 241 35 44 53
122 140 242 37 44 52
122 140 243 37 45 53
122 141 242 36 44 52
122 141 243 37 45 53
123 140 242 35 44 53
123 141 242 36 44 53
123 142 240 36 44 53
123 142 241 36 45 53
123 143 240 35 44 52
123 143 241 36 45 54
122 142 243 39 46 54
122 143 243 39 46 54
123 142 242 37 45 54
123 143 242 38 46 54
123 143 243 39 46 54
120 140 245 36 44 52
120 141 245 36 44 52
121 140 244 37 44 52
121 140 245 35 43 51
121 141 244 36 44 52
121 141 245 36 43 51
120 140 246 37 44 52
120 141 246 37 44 52
120 141 247 36 44 52
121 141 246 36 44 52
121 142 245 36 44 52
121 143 245 36 44 51
120 142 246 37 44 52
120 142 247 37 44 52
120 143 247 36 43 51
121 142 246 37 44 52
121 143 246 36 44 52
121 143 247 36 44 52
122 141 244 37 44 52
122 142 244 38 45 53
122 142 245 36 44 52
122 143 244 38 45 54
122 143 245 36 44 52
124 141 240 35 44 52
124 143 240 35 44 53
120 142 248 37 45 53
120 143 248 37 44 52
120 143 249 39 46 53
125 144 224 48 54 62
125 144 225 48 53 60
125 145 224 50 57 64
125 145 225 49 54 61
125 144 226 43 48 55
125 144 227 38 45 52
125 145 226 42 48 55
125 145 227 38 45 52
124 146 224 46 53 62
124 147 224 45 52 61
125 146 224 47 54 62
125 146 225 48 53 61
125 147 225 44 50 58
125 146 226 43 49 56
125 146 227 40 47 54
125 147 226 43 49 56
125 147 227 42 49 56
125 144 228 38 46 53
125 144 229 43 50 57
125 145 228 37 44 52
125 145 229 37 45 54
125 144 230 43 50 57
125 144 231 38 46 53
125 145 230 39 46 55
125 145 231 37 45 53
125 146 228 39 46 54
125 146 229 39 46 54
125 147 228 41 48 56
125 147 229 41 48 56
125 146 230 38 46 55
125 146 231 37 45 54
125 147 230 40 48 56
125 147 231 38 47 55
124 148 224 47 55 63
124 148 225 44 51 59
124 149 224 48 55 63
124 149 225 46 52 60
125 148 225 40 48 56
124 149 226 43 50 57
125 148 226 40 47 55
125 148 227 41 48 55
125 149 226 42 49 56
125 149 227 40 47 54
124 150 224 50 56 64
124 150 225 47 53 60
124 151 224 51 57 65
124 151 225 47 53 60
124 150 226 42 49 56
124 151 226 43 50 57
125 150 226 40 47 54
125 150 227 38 45 52
125 151 226 40 47 54
125 151 227 37 44 52
125 148 228 41 48 55
125 148 229 42 49 56
125 149 228 39 45 53
125 149 229 38 45 53
125 148 230 42 49 57
125 148 231 39 47 55
125 149 230 42 49 57
125 149 231 41 48 57
125 150 228 38 44 51
125 150 229 38 45 52
125 151 228 38 44 51
125 151 229 39 45 52
125 150 230 40 47 55
125 150 231 40 47 55
125 151 230 41 47 55
125 151 231 39 46 54
125 144 232 37 45 53
125 144 233 37 45 53
125 145 232 38 45 53
125 145 233 38 45 53
125 144 234 37 45 53
125 144 235 38 46 54
125 145 234 37 45 52
125 145 235 39 46 54
125 146 232 37 45 53
125 146 233 38 45 52
125 147 232 37 45 54
125 147 233 37 44 52
125 146 234 38 45 52
125 146 235 39 46 54
125 147 234 37 44 52
125 147 235 38 45 53
124 144 236 38 46 55
124 144 237 39 47 55
124 145 236 40 47 55
124 145 237 40 47 55
125 144 236 38 46 55
125 145 236 40 47 55
124 144 238 37 45 54
124 144 239 37 45 53
124 145 238 37 45 53
124 145 239 37 45 53
124 146 237 40 46 54
124 147 237 39 46 54
125 146 236 40 47 54
125 147 236 39 46 54
124 146 238 40 47 54
124 146 239 38 46 54
124 147 238 39 46 54
124 147 239 37 45 53
125 148 232 39 46 54
125 148 233 37 44 53
125 149 232 38 46 55
125 149 233 36 44 53
125 148 234 36 44 52
125 148 235 37 44 53
125 149 234 35 44 52
125 149 235 37 45 53
125 150 232 36 45 53
125 150 233 35 44 52
125 151 232 36 44 52
125 151 233 33 42 51
125 150 234 35 43 52
125 150 235 36 44 53
125 151 234 33 42 51
125 151 235 35 43 52
124 148 237 37 45 52
124 149 237 37 44 52
125 148 236 37 44 53
125 148 237 36 44 52
125 149 236 36 44 53
125 149 237 36 44 52
124 148 238 38 45 53
124 148 239 36 44 52
124 149 238 39 46 53
124 149 239 39 46 54
125 150 236 36 44 53
125 150 237 36 44 52
125 151 236 36 44 53
125 151 237 36 43 51
124 150 238 37 44 52
124 150 239 38 45 53
124 151 238 35 43 51
124 151 239 36 44 52
125 151 238 36 43 51
125 151 239 37 44 52
124 152 224 51 57 65
124 152 225 49 55 62
124 153 224 51 57 63
124 153 225 50 55 62
124 152 226 45 51 58
124 153 226 46 52 59
125 152 226 44 50 57
125 152 227 39 46 53
125 153 226 45 51 58
125 153 227 43 49 56
124 154 224 51 57 64
124 154 225 51 56 62
125 154 225 50 55 61
125 155 224 45 51 59
125 155 225 51 56 62
125 154 226 47 52 59
125 154 227 44 50 56
125 155 226 48 53 59
125 155 227 44 50 56
125 152 228 39 46 53
125 152 229 38 46 53
125 153 228 42 48 55
125 153 229 42 48 55
125 152 230 41 48 55
125 152 231 41 47 54
125 153 230 42 48 56
125 153 231 42 48 55
125 154 228 44 49 55
125 154 229 43 49 56
125 155 228 43 49 56
125 155 229 45 50 57
125 154 230 43 49 56
125 154 231 41 47 54
125 155 230 46 51 58
125 155 231 44 50 57
125 156 224 40 47 55
125 156 225 49 54 61
125 157 224 38 46 54
125 157 225 47 52 59
125 156 226 50 54 60
125 156 227 44 50 56
125 157 226 50 54 59
125 157 227 45 50 56
125 158 224 38 46 54
125 158 225 46 51 58
125 159 225 46 51 57
125 158 226 49 53 58
125 158 227 45 50 55
125 159 226 48 52 57
125 159 227 47 51 56
126 159 224 39 46 54
126 159 225 44 50 57
126 159 226 47 51 57
126 159 227 43 48 54
125 156 228 42 48 55
125 156 229 42 48 55
125 157 228 41 47 53
125 157 229 42 48 55
125 156 230 43 49 56
125 156 231 43 49 57
125 157 230 42 48 55
125 157 231 40 47 55
125 158 228 41 46 53
125 158 229 39 45 52
125 158 230 41 47 54
125 158 231 40 47 55
125 159 231 39 46 54
126 158 228 40 45 52
126 158 229 37 44 51
126 159 228 38 44 50
126 159 229 35 42 49
126 158 230 38 45 52
126 159 230 35 42 50
126 159 231 36 44 52
125 152 232 37 44 52
125 152 233 34 43 51
125 153 232 39 46 53
125 153 233 36 44 52
125 152 234 33 42 51
125 152 235 34 43 52
125 153 234 34 43 51
125 153 235 35 44 52
125 154 232 39 45 53
125 154 233 36 44 52
125 155 232 41 47 54
125 155 233 38 45 53
125 154 234 36 44 52
125 154 235 36 45 53
125 155 234 37 44 52
125 155 235 38 46 54
125 152 236 35 44 52
125 152 237 35 43 51
125 153 236 37 45 54
125 153 237 36 45 53
124 152 238 36 44 52
125 152 238 36 44 52
125 152 239 36 44 52
125 153 238 35 44 52
125 153 239 35 44 52
125 154 236 38 46 54
125 154 237 37 45 53
125 155 236 38 46 54
125 155 237 36 45 53
125 154 238 36 44 53
125 154 239 36 44 53
125 155 238 34 43 52
125 155 239 34 43 52
125 156 232 42 48 55
125 156 233 38 46 53
125 157 232 38 46 54
125 157 233 37 45 53
125 156 234 36 44 52
125 156 235 38 45 53
125 157 234 38 45 52
125 157 235 38 45 52
125 158 232 38 45 53
125 158 233 35 44 52
125 159 232 39 46 54
125 159 233 36 44 52
125 158 234 36 44 52
125 158 235 37 44 52
125 159 234 36 44 52
125 159 235 37 45 53
126 159 232 39 46 53
126 159 233 37 45 54
125 156 236 38 45 53
125 156 237 35 44 52
125 157 236 37 45 53
125 157 237 35 44 52
125 156 238 33 43 52
125 156 239 33 43 52
125 157 238 34 44 53
125 157 239 34 43 52
125 158 236 37 44 52
125 158 237 34 44 52
125 159 236 36 44 52
125 159 237 35 44 52
125 158 238 34 44 53
125 158 239 35 45 54
125 159 238 36 45 53
125 159 239 36 45 53
115 144 255 37 45 53
119 144 249 38 45 53
119 145 249 38 45 53
118 144 250 37 44 51
118 144 251 38 44 51
118 145 251 40 46 53
119 144 250 38 45 52
119 145 250 38 45 52
119 145 251 39 45 53
118 146 251 41 47 54
119 146 250 38 45 52
119 146 251 39 45 53
119 147 250 38 45 52
119 147 251 38 45 52
117 144 252 37 44 52
117 144 253 37 44 52
117 145 253 37 44 52
116 144 254 37 45 53
116 144 255 38 45 54
116 145 254 37 45 53
116 145 255 37 45 53
117 144 254 36 44 53
117 145 254 37 45 53
117 146 253 38 45 53
116 146 255 37 45 53
116 147 255 36 44 52
117 146 254 37 44 52
117 147 254 37 45 53
117 147 255 36 44 52
118 144 252 37 44 52
118 145 252 38 45 52
118 145 253 38 44 51
118 146 252 40 46 53
118 146 253 39 46 53
118 147 252 39 45 53
118 147 253 40 46 53
119 148 251 38 45 53
119 149 251 39 46 54
119 150 251 40 47 54
116 148 255 37 44 52
117 148 254 38 45 53
117 148 255 37 44 52
117 149 254 37 45 53
117 149 255 36 44 53
117 150 254 37 45 54
117 150 255 37 45 54
117 151 255 36 44 52
118 148 252 39 45 53
118 148 253 40 46 53
118 149 252 39 46 53
118 149 253 40 46 53
119 148 252 39 46 53
119 149 252 39 46 53
118 148 254 38 45 53
118 149 254 39 45 53
118 150 253 40 46 53
118 151 253 39 45 52
119 150 252 40 46 54
119 150 253 40 46 53
119 151 252 39 46 53
119 151 253 38 45 52
118 150 254 39 46 54
118 151 254 38 45 53
118 151 255 37 44 53
117 152 255 36 44 52
119 152 252 39 46 53
119 152 253 39 45 53
119 153 252 39 46 53
119 153 253 40 46 54
118 152 254 36 44 51
118 152 255 36 44 52
118 153 255 37 44 52
119 152 254 37 44 51
119 153 254 38 46 53
119 153 255 37 45 53
119 154 253 40 47 54
118 154 255 37 44 52
119 154 254 39 46 54
119 154 255 38 45 53
119 155 254 39 46 54
119 155 255 38 45 53
119 156 254 38 45 53
119 156 255 38 44 52
119 157 255 38 44 52
119 158 255 39 45 52
119 159 255 39 45 52
123 144 240 35 44 53
123 144 241 35 44 53
123 145 241 36 44 53
122 144 243 37 45 54
123 144 242 37 45 54
123 144 243 36 44 53
123 145 242 37 44 53
123 145 243 36 44 52
123 146 241 36 43 52
123 147 241 34 43 51
123 146 242 36 44 52
123 146 243 37 44 52
123 147 242 35 44 52
123 147 243 38 45 53
120 144 247 36 43 51
121 144 246 35 43 51
121 144 247 36 44 52
121 145 247 37 45 53
121 146 247 39 46 54
121 147 247 39 46 54
122 144 244 36 44 53
122 144 245 35 43 52
122 145 244 37 45 54
122 145 245 36 44 53
123 145 244 37 45 53
122 144 246 35 43 51
122 145 246 36 44 52
122 146 244 39 46 54
122 146 245 38 46 54
122 147 245 37 45 53
123 146 244 38 45 54
123 147 244 38 46 54
123 147 245 38 45 53
122 146 246 37 45 53
122 146 247 39 46 54
122 147 246 38 46 54
122 147 247 39 46 54
123 148 241 33 42 51
123 148 242 35 44 52
123 148 243 37 45 53
123 149 243 36 44 52
123 150 243 36 44 52
123 151 243 37 44 52
122 148 245 37 44 53
123 148 244 36 44 52
123 148 245 37 44 52
123 149 244 36 44 52
123 149 245 37 45 53
122 148 246 38 45 53
122 148 247 39 47 54
122 149 246 38 46 54
122 149 247 39 46 54
123 150 244 36 44 52
123 150 245 37 44 53
123 151 244 36 43 51
123 151 245 35 43 51
122 150 246 39 46 54
122 150 247 38 46 54
122 151 247 38 45 53
123 150 246 38 45 54
123 151 246 35 43 52
123 151 247 36 44 52
124 144 240 36 45 53
124 145 240 37 45 53
124 146 240 38 45 54
124 146 241 36 44 53
124 147 240 36 44 53
124 147 241 34 43 52
124 148 240 36 44 52
124 148 241 35 43 52
124 149 240 39 46 54
124 149 241 36 45 53
124 148 242 36 44 52
124 149 242 36 44 53
124 150 240 39 46 54
124 150 241 38 45 53
124 151 240 36 44 52
124 151 241 35 43 52
124 150 242 36 44 52
124 150 243 36 44 52
124 151 242 36 44 52
124 151 243 37 44 52
124 151 244 37 44 52
120 144 248 37 44 51
120 144 249 38 45 52
120 145 248 38 45 52
120 145 249 38 45 53
121 145 248 37 44 52
120 146 248 38 45 52
120 146 249 37 44 52
120 147 249 37 45 53
121 146 248 37 44 52
121 147 248 38 45 53
121 147 249 37 45 53
120 147 250 38 45 53
120 148 249 38 45 53
120 149 249 38 45 53
121 148 248 39 46 54
121 148 249 38 45 53
121 149 248 38 46 54
121 149 249 38 46 53
120 148 250 38 45 53
120 149 250 38 46 54
120 149 251 39 46 54
121 150 248 39 46 54
121 150 249 40 47 54
121 151 249 39 46 54
120 150 250 39 46 54
120 150 251 40 46 54
120 151 250 40 47 54
120 151 251 40 47 54
121 151 250 40 47 54
122 149 248 39 46 54
122 150 248 39 46 55
122 151 248 39 47 55
122 151 249 39 47 54
123 152 245 36 43 51
123 153 245 37 44 52
122 152 247 38 45 53
123 152 246 36 44 51
123 152 247 37 45 52
123 153 246 37 45 52
123 153 247 37 45 53
123 154 245 39 46 53
123 154 246 40 46 54
123 154 247 39 46 53
123 155 246 40 46 53
123 155 247 39 46 53
123 156 246 41 47 54
123 156 247 40 46 53
123 157 246 41 47 54
123 157 247 41 47 54
123 158 247 41 46 53
123 159 247 40 45 52
124 152 241 34 43 51
124 153 241 34 42 51
125 152 240 37 44 53
125 152 241 36 44 52
125 153 240 34 42 51
125 153 241 34 42 50
124 152 242 35 43 51
124 152 243 36 44 52
124 153 242 35 44 52
124 153 243 37 45 53
124 154 241 32 42 50
125 154 240 34 43 51
125 154 241 33 42 51
125 155 240 33 42 51
125 155 241 34 43 52
124 154 242 37 45 53
124 154 243 38 46 54
124 155 242 36 45 53
124 155 243 38 46 54
125 155 242 36 45 53
124 152 244 36 43 51
124 152 245 35 43 51
124 153 244 36 44 52
124 153 245 36 44 52
124 154 244 38 45 52
124 154 245 38 45 53
124 155 244 37 44 52
124 155 245 38 45 53
125 156 240 31 41 50
125 156 241 34 43 52
125 157 240 32 42 51
125 157 241 33 42 52
124 156 243 36 45 53
125 156 242 36 44 53
125 156 243 36 45 53
125 157 242 35 44 53
125 157 243 36 44 53
125 158 240 35 44 53
125 158 241 35 44 53
125 159 240 36 45 53
125 159 241 37 46 54
125 158 242 36 45 53
125 158 243 36 45 53
125 159 242 39 47 55
125 159 243 38 45 54
124 156 244 35 43 51
124 156 245 38 45 53
124 157 244 36 44 52
124 157 245 38 45 53
124 156 246 40 47 54
124 157 246 40 47 54
124 158 244 38 45 53
124 158 245 39 46 53
124 159 245 41 47 53
125 158 244 38 45 53
125 159 244 38 45 53
125 159 245 40 46 53
124 158 246 40 46 53
124 159 246 40 46 53
124 159 247 40 45 51
121 152 249 38 46 53
121 153 249 40 47 54
120 152 250 41 47 54
120 152 251 41 47 54
120 153 251 40 47 54
121 152 250 40 46 54
121 153 250 41 47 54
121 154 249 41 48 55
120 154 251 40 47 54
120 155 251 41 47 54
121 154 250 41 47 54
121 155 250 41 47 54
121 155 251 41 47 54
122 152 248 40 47 54
122 152 249 39 46 54
122 153 248 39 46 54
122 153 249 39 46 54
123 153 248 38 45 53
122 154 248 38 46 53
122 154 249 41 47 55
122 155 248 41 47 55
122 155 249 41 48 55
123 154 248 39 46 53
123 155 248 40 46 53
122 155 250 42 48 55
120 152 252 39 46 53
120 153 252 39 46 53
120 154 252 39 46 53
120 154 253 39 46 53
120 155 252 39 46 53
120 155 253 38 45 53
120 155 254 38 46 54
121 156 250 41 47 54
121 156 251 42 48 55
121 157 251 40 47 54
121 158 251 38 45 52
121 159 251 37 44 51
122 156 249 41 48 55
122 157 249 41 48 55
123 156 248 41 47 55
123 157 248 42 48 55
122 156 250 41 47 55
122 157 250 40 47 54
122 157 251 39 45 53
122 158 249 41 47 55
123 158 248 42 47 54
123 158 249 41 48 55
123 159 248 40 46 53
123 159 249 40 47 54
122 158 250 38 45 53
122 158 251 38 45 52
122 159 250 38 45 53
122 159 251 37 44 51
120 156 252 41 47 54
120 156 253 39 46 53
120 157 252 40 46 53
120 157 253 39 46 53
121 156 252 41 47 54
121 157 252 40 46 53
120 156 254 38 45 53
120 157 254 38 45 53
120 158 253 40 46 53
120 159 253 39 46 53
121 158 252 40 46 53
121 159 252 38 44 51
121 159 253 40 46 53
120 158 254 38 45 53
120 158 255 39 45 53
120 159 254 39 46 53
120 159 255 38 45 52
96 160 193 39 45 52
96 161 193 39 46 52
97 160 193 39 45 52
96 161 194 40 46 53
97 160 194 38 45 52
97 161 194 39 45 52
96 162 194 40 47 53
96 163 194 41 47 54
97 162 194 39 45 52
97 162 195 39 45 52
97 163 194 40 46 53
97 163 195 39 45 52
98 160 194 38 45 52
98 161 194 39 45 52
98 161 195 39 45 52
99 160 194 39 45 52
99 160 195 39 45 52
99 161 195 39 45 52
98 162 195 40 46 52
98 163 195 38 44 52
99 162 195 39 45 52
99 163 195 38 45 52
96 164 195 40 46 53
96 165 194 40 46 53
96 165 195 40 46 53
97 164 195 39 45 52
97 165 195 39 45 52
96 166 194 40 46 53
96 167 194 41 47 54
97 166 195 39 45 53
97 167 194 39 46 53
97 167 195 39 46 53
98 164 195 38 45 52
98 165 195 38 45 52
99 164 195 39 45 52
99 165 195 39 45 53
98 166 195 38 45 53
98 167 195 39 46 53
99 166 195 39 46 53
99 167 195 39 46 53
99 167 196 39 46 53
100 160 195 39 45 52
100 161 195 39 45 52
101 160 195 39 45 52
100 162 195 39 45 52
100 161 196 38 45 51
101 160 196 39 45 52
101 161 196 38 45 51
100 162 196 39 45 52
100 163 196 39 45 52
101 162 196 38 44 51
101 163 196 38 45 52
101 163 197 38 45 52
102 160 196 39 45 52
102 161 196 38 45 52
103 160 196 39 45 52
103 160 197 38 45 52
103 161 196 39 45 53
103 161 197 39 45 53
102 162 196 38 45 52
102 162 197 38 45 53
102 163 197 38 45 52
103 162 197 38 45 53
103 163 197 39 45 53
100 166 195 39 46 53
100 164 196 40 46 54
100 165 196 40 47 54
101 164 196 40 46 54
101 164 197 38 45 53
101 165 196 40 46 53
101 165 197 39 45 53
100 166 196 40 46 53
100 167 196 39 45 53
101 166 197 39 46 53
101 167 197 39 45 52
101 167 198 39 45 52
102 164 197 38 45 52
102 165 197 39 45 52
103 164 197 39 45 53
102 165 198 39 45 52
103 164 198 39 45 52
103 165 198 39 45 52
102 166 197 39 45 52
102 167 197 39 45 52
102 166 198 40 46 52
102 167 198 39 46 52
103 166 198 40 46 52
103 167 198 40 46 52
103 167 199 40 46 52
96 168 194 42 48 55
96 169 194 42 48 55
96 169 195 41 48 54
97 168 195 40 47 54
97 169 195 40 47 54
96 170 194 42 48 55
96 170 195 42 48 55
96 171 195 42 48 55
97 170 195 41 47 54
97 171 195 41 47 55
98 168 195 39 46 53
98 169 195 39 45 53
97 170 196 41 47 55
97 171 196 41 48 55
98 168 196 39 45 53
98 169 196 38 45 53
99 168 196 39 46 53
99 169 196 38 45 53
99 169 197 39 46 53
98 170 196 40 46 54
98 171 196 40 47 54
99 170 197 40 46 53
99 171 197 39 46 54
96 172 195 41 48 55
96 173 194 41 48 56
96 173 195 40 47 55
97 172 195 41 48 55
96 174 195 40 47 54
96 175 195 40 47 54
97 174 195 39 46 53
97 175 195 39 46 53
97 172 196 41 48 55
97 173 196 39 46 54
97 174 196 39 46 53
97 175 196 40 46 53
98 172 196 39 46 54
98 173 196 40 46 54
99 172 196 40 46 54
99 172 197 39 46 54
99 173 196 39 46 53
98 174 196 40 46 54
98 175 196 40 46 53
99 174 196 39 46 53
99 175 196 38 45 52
100 168 197 40 46 53
100 169 197 40 46 53
101 168 197 39 45 52
101 169 197 41 46 53
101 168 198 40 45 52
101 169 198 40 46 52
100 170 197 41 47 53
100 171 197 40 46 53
101 170 197 40 46 52
101 171 197 40 46 53
101 170 198 40 45 52
102 168 198 39 45 52
102 169 198 39 45 51
103 168 198 40 46 52
103 168 199 40 45 52
103 169 198 39 45 51
103 169 199 39 45 51
102 170 198 38 44 50
102 171 198 38 44 50
103 170 198 39 44 51
103 170 199 39 44 51
103 171 198 38 44 51
103 171 199 38 44 51
100 172 196 40 46 53
100 172 197 40 46 53
100 173 196 39 45 52
100 173 197 39 45 52
101 172 197 39 45 52
101 173 197 39 45 52
100 174 196 38 44 51
100 175 196 38 44 51
101 174 196 38 44 51
101 174 197 39 45 52
101 175 196 38 44 51
101 175 197 38 45 51
102 172 197 38 45 52
102 173 197 39 45 52
102 172 198 38 44 51
102 173 198 38 44 51
103 172 198 37 43 50
103 172 199 37 43 50
103 173 198 37 44 51
103 173 199 37 44 51
102 174 197 39 45 52
102 175 197 38 45 51
102 174 198 38 45 52
102 175 198 38 45 52
103 174 198 37 44 51
103 174 199 37 44 51
103 175 198 37 44 51
103 175 199 37 44 51
104 160 197 38 44 52
104 161 197 39 45 53
105 160 197 37 44 51
105 161 197 38 45 52
105 160 198 37 44 51
105 161 198 38 44 51
104 162 197 38 45 52
104 163 197 39 45 52
105 162 197 39 45 52
105 163 197 39 45 52
106 160 198 37 43 50
106 161 198 37 43 50
107 160 198 36 43 50
107 160 199 36 43 50
107 161 198 36 43 50
106 162 197 38 44 51
106 163 197 38 44 51
106 162 198 38 44 51
106 163 198 37 43 50
107 162 198 37 44 51
107 163 198 37 44 50
105 164 197 38 44 51
104 164 198 40 46 52
104 165 198 40 46 52
105 164 198 39 45 52
105 165 198 39 45 52
104 166 198 40 46 52
104 167 199 40 45 52
105 166 198 40 45 52
105 167 198 40 45 52
106 164 197 38 44 51
106 165 197 38 44 51
107 164 197 38 44 51
107 165 197 39 44 51
106 165 198 39 45 51
107 164 198 38 44 50
107 165 198 38 44 50
106 166 197 39 44 51
107 166 197 38 44 50
106 166 198 39 45 51
106 167 198 39 45 51
107 166 198 37 43 50
107 167 198 38 44 51
108 160 199 37 43 50
108 161 199 37 43 50
109 160 199 38 44 51
109 161 199 37 44 50
108 162 198 38 44 51
108 162 199 37 44 50
108 163 198 38 44 50
108 163 199 38 44 50
109 162 199 38 44 51
109 163 199 38 44 50
110 163 199 38 44 50
108 164 198 38 44 50
108 165 198 38 44 50
109 164 199 38 44 50
109 165 199 37 43 50
108 166 198 37 43 50
108 166 199 37 43 50
108 167 198 37 43 50
108 167 199 37 44 50
109 166 199 37 43 50
109 167 199 36 43 50
110 164 199 38 43 50
110 165 199 37 43 50
110 166 199 36 43 50
109 160 200 37 44 51
110 160 200 36 43 50
110 161 200 37 43 50
111 160 201 36 43 50
111 161 200 37 43 50
111 161 201 37 44 51
110 162 200 38 44 51
110 163 200 38 44 51
111 162 200 38 44 51
111 162 201 38 44 51
111 163 200 38 44 51
111 163 201 38 44 51
110 164 200 37 43 50
110 165 200 37 43 50
111 164 200 37 43 50
111 164 201 37 43 50
111 165 200 37 43 50
111 165 201 36 42 49
110 166 200 36 43 50
110 167 200 37 43 50
111 166 200 36 43 49
111 166 201 36 42 49
111 167 200 36 43 49
111 167 201 37 43 49
104 168 199 40 45 52
104 169 199 39 45 52
105 168 198 40 45 52
105 168 199 39 45 51
105 169 199 39 45 51
104 170 199 39 45 51
104 171 199 38 44 51
105 170 199 39 45 51
105 171 199 38 44 51
106 168 198 39 45 52
106 168 199 38 44 51
106 169 199 38 44 51
107 168 199 37 44 51
107 169 199 37 43 50
106 170 199 38 44 51
106 171 199 38 44 51
107 170 199 36 43 50
107 171 199 37 44 51
104 172 199 37 44 51
104 173 199 37 44 51
105 172 199 37 44 50
105 173 199 37 43 50
104 174 199 37 43 50
104 175 199 37 43 51
105 174 199 37 43 50
105 175 199 37 43 50
106 172 199 37 44 51
107 172 199 36 43 50
108 168 199 37 43 50
108 169 199 36 43 50
109 168 199 36 43 50
109 169 199 36 43 50
108 170 199 36 43 50
108 171 199 37 43 50
109 170 199 36 43 50
109 171 199 37 43 50
110 170 199 36 42 49
110 171 199 36 42 49
108 172 199 38 44 50
109 172 199 37 43 50
109 173 199 38 44 50
110 172 199 36 42 49
110 173 199 37 43 49
104 171 200 38 44 51
105 173 200 37 43 50
105 174 200 38 44 50
105 175 200 37 43 50
106 172 200 36 43 51
106 173 200 37 43 50
107 172 200 36 43 50
107 173 200 37 43 50
106 174 200 37 43 50
106 175 200 36 43 50
107 174 200 37 43 50
107 175 200 36 43 50
107 175 201 37 43 50
108 169 200 36 43 50
109 168 200 36 43 50
109 169 200 36 43 49
109 170 200 36 43 49
110 168 200 37 43 50
110 169 200 36 43 49
111 168 200 37 43 49
111 168 201 37 43 49
111 169 200 37 43 49
111 169 201 37 42 48
110 170 200 36 42 49
110 171 200 36 42 49
111 170 200 37 43 49
111 170 201 37 42 48
111 171 200 37 42 48
111 171 201 37 42 48
108 172 200 37 44 50
108 173 200 38 44 51
109 173 200 38 44 50
108 174 200 38 44 51
108 175 201 38 43 50
109 174 200 38 44 50
109 175 201 38 43 50
110 173 200 36 42 49
111 172 200 36 42 48
111 172 201 36 42 48
111 173 200 36 42 49
111 173 201 36 42 49
110 174 200 37 43 49
110 174 201 37 43 49
110 175 201 36 42 49
111 174 201 36 42 49
111 175 201 36 42 49
96 176 195 40 47 54
96 177 195 40 47 54
97 176 195 39 46 53
97 177 195 39 46 53
96 178 195 40 46 54
96 179 195 39 46 53
97 178 195 40 46 53
97 179 195 39 46 53
98 176 195 39 46 53
98 177 195 40 46 53
99 177 195 39 46 53
98 178 195 40 46 53
98 179 195 39 46 53
99 178 195 40 46 53
99 179 195 39 45 52
98 176 196 39 46 53
99 176 196 39 45 52
99 177 196 39 46 52
99 179 196 38 45 51
96 180 195 40 46 53
96 181 195 40 46 54
97 180 195 39 46 53
97 181 195 40 47 53
96 182 195 39 46 53
96 183 195 40 46 53
97 182 195 40 46 53
97 183 195 40 46 53
98 180 195 39 45 52
98 181 195 39 46 53
97 183 196 41 47 53
98 180 196 40 46 53
98 181 196 39 45 52
99 180 196 39 45 52
99 181 196 39 45 52
98 182 196 39 45 52
98 183 196 40 46 53
99 182 196 38 45 51
99 183 196 40 46 52
100 178 195 40 46 53
100 179 195 38 44 51
100 176 196 39 45 52
100 177 196 39 45 52
101 176 196 38 44 51
101 177 196 39 44 51
100 178 196 38 45 51
100 179 196 38 44 51
101 178 196 39 45 51
101 179 196 39 44 51
102 176 197 39 45 51
102 177 196 39 45 52
102 177 197 39 45 52
103 176 198 37 44 51
103 176 199 37 44 51
103 177 198 38 44 51
103 177 199 37 44 51
102 178 196 40 46 52
102 178 197 39 45 52
102 179 196 39 45 51
102 179 197 39 45 51
103 178 198 38 44 51
103 178 199 37 44 51
103 179 198 38 44 51
100 180 196 39 45 52
100 181 196 39 45 51
101 180 196 39 45 52
101 181 196 39 45 51
101 181 197 39 45 52
100 182 196 39 45 52
100 183 196 39 45 52
100 183 197 39 45 51
101 182 197 39 45 52
101 183 197 38 44 51
102 180 196 39 45 51
102 180 197 39 45 51
102 181 197 39 45 51
103 180 198 38 45 51
103 181 198 39 45 52
102 182 197 39 45 52
102 183 197 39 45 52
102 183 198 40 45 52
103 182 198 39 45 52
103 183 198 40 46 52
96 184 195 40 46 53
96 185 195 40 46 53
96 186 195 40 46 52
96 184 196 40 46 53
96 185 196 40 46 52
97 184 196 40 46 53
97 185 196 40 46 53
96 186 196 40 46 52
96 187 196 40 46 53
97 186 196 40 46 53
97 187 196 40 46 52
98 184 196 40 47 53
98 185 196 40 46 53
99 184 196 40 46 53
99 185 196 40 46 53
99 185 197 40 46 53
98 186 196 40 46 53
98 187 196 41 46 53
99 186 196 40 46 53
99 187 196 40 46 53
96 188 196 40 46 53
96 189 196 40 46 52
97 188 196 40 46 53
97 189 196 41 46 53
96 190 196 40 46 53
96 190 197 40 45 52
96 191 196 40 46 52
96 191 197 39 45 51
97 190 196 40 46 52
97 190 197 40 45 52
97 191 197 39 45 51
98 188 196 41 47 53
98 189 196 42 47 54
98 189 197 42 47 54
99 188 196 40 46 52
99 189 196 41 47 53
99 189 197 40 46 52
98 190 197 40 46 52
98 191 197 39 44 51
99 190 197 39 45 52
99 191 197 38 44 51
100 184 196 40 46 52
100 184 197 39 45 52
100 185 197 39 45 52
101 184 197 38 45 51
101 185 197 39 45 52
100 186 196 39 45 52
100 186 197 39 45 52
100 187 196 39 45 52
101 186 197 39 45 52
101 187 196 38 44 52
101 187 197 38 44 51
102 184 197 39 45 52
102 185 197 39 45 52
103 184 198 39 45 51
103 185 198 39 45 52
102 186 197 38 44 51
102 187 197 38 45 52
103 186 197 38 45 52
103 186 198 39 45 52
103 187 198 39 45 52
100 188 196 38 45 52
100 189 197 38 44 52
101 188 196 38 44 52
101 188 197 38 44 52
101 189 197 37 44 51
100 190 197 38 44 51
100 191 197 38 44 51
101 190 197 37 44 51
100 191 198 38 44 51
101 190 198 37 44 51
101 191 198 39 45 51
102 188 197 38 44 52
102 189 197 37 44 51
103 188 197 38 45 52
102 189 198 37 44 51
103 188 198 39 45 52
103 189 198 38 44 52
103 189 199 38 45 52
102 190 198 37 44 51
102 190 199 37 44 52
102 191 198 38 44 51
102 191 199 38 45 52
103 190 199 38 45 52
103 191 199 38 45 52
103 190 200 39 45 52
103 191 200 39 45 52
103 191 201 39 45 52
104 176 199 38 44 51
104 177 199 37 44 51
105 176 199 37 44 50
104 178 199 37 44 51
104 179 199 38 44 51
104 180 199 38 44 51
104 181 198 40 45 52
104 181 199 39 45 51
105 180 199 38 44 51
105 181 199 37 44 50
104 182 198 39 45 51
104 182 199 39 45 51
104 183 198 40 45 52
104 183 199 39 45 51
105 182 199 39 45 51
105 183 199 38 44 51
106 182 199 38 44 51
106 183 199 38 44 51
107 183 199 37 44 50
104 176 200 36 43 50
104 177 200 37 44 50
105 176 200 37 43 50
105 177 200 37 43 50
105 178 200 37 44 50
105 179 200 38 44 51
106 176 200 36 43 50
106 177 200 37 43 50
107 176 200 37 43 50
107 176 201 38 44 50
107 177 200 37 42 49
107 177 201 38 44 50
106 178 200 37 43 50
106 179 200 38 43 50
107 178 201 37 43 49
107 179 200 38 43 49
107 179 201 37 43 49
105 180 200 38 44 51
105 181 200 37 44 50
106 180 200 38 44 50
106 181 200 37 44 50
107 180 200 37 43 49
107 181 200 37 43 49
106 182 200 38 44 51
106 183 200 38 44 51
107 182 200 38 44 50
107 183 200 38 44 51
108 176 201 38 44 50
108 177 201 38 43 50
109 176 201 38 44 50
109 177 201 38 43 49
108 178 201 37 43 49
108 179 200 37 43 49
108 179 201 38 43 49
109 178 201 37 43 49
109 179 201 38 43 49
110 176 201 37 43 49
110 177 201 37 43 49
111 176 201 36 43 50
111 177 201 36 42 49
111 177 202 36 42 49
110 178 201 37 43 50
110 179 201 37 43 50
111 178 201 37 43 50
111 179 201 36 43 50
111 178 202 37 43 50
111 179 202 36 43 50
108 180 200 37 43 49
108 180 201 37 43 49
108 181 200 37 43 49
108 181 201 37 43 49
109 180 201 37 43 49
109 181 200 37 43 50
109 181 201 37 43 50
108 182 200 38 44 50
108 183 200 38 44 50
109 182 200 37 43 50
109 182 201 37 43 50
109 183 200 38 44 50
110 180 201 37 43 50
110 181 201 38 44 51
111 180 201 37 44 51
111 181 201 38 44 51
111 180 202 37 44 51
111 181 202 37 44 51
110 182 201 37 44 51
110 183 201 39 45 51
111 182 201 38 44 51
111 183 201 39 45 52
104 184 198 39 45 51
104 184 199 39 45 51
104 185 198 39 45 51
104 185 199 39 44 50
105 184 199 39 44 51
105 185 199 39 44 51
104 186 198 39 45 51
104 186 199 39 44 50
104 187 199 39 45 51
105 186 199 39 44 51
105 187 199 38 44 51
106 184 199 38 44 51
106 185 199 39 45 51
107 185 199 38 44 51
106 186 199 39 45 51
104 188 198 39 45 52
104 188 199 39 45 52
104 189 199 39 45 52
105 187 200 39 45 52
106 185 200 38 44 51
107 184 200 38 44 50
107 185 200 39 44 51
106 186 200 39 45 51
106 187 200 39 45 51
107 186 200 38 44 51
107 187 200 38 44 51
104 189 200 38 45 52
105 188 200 39 45 52
105 189 200 38 45 52
104 190 200 38 45 52
104 191 200 38 45 52
104 191 201 38 45 52
105 190 200 38 45 52
105 191 200 38 44 51
105 191 201 38 45 51
106 188 200 39 45 52
106 189 200 38 45 52
106 189 201 39 45 52
107 188 200 38 45 51
107 188 201 38 45 52
107 189 200 38 44 51
107 189 201 38 44 51
106 190 200 39 45 52
106 191 200 38 45 52
107 190 200 38 44 51
107 190 201 38 44 51
107 191 200 38 44 51
108 184 200 38 44 50
108 185 200 38 44 50
109 184 200 38 44 50
109 185 200 38 44 50
109 185 201 38 44 51
108 186 200 38 44 50
108 186 201 38 44 51
108 187 200 39 44 51
109 186 200 38 44 51
109 186 201 37 44 51
109 187 201 38 45 51
110 184 200 38 44 51
110 184 201 39 44 51
110 185 201 39 45 51
111 184 201 39 45 52
111 185 201 39 45 52
111 185 202 40 46 53
110 186 201 38 45 52
110 187 201 38 45 52
111 186 201 39 45 52
110 186 202 39 45 52
110 187 202 39 45 52
111 186 202 40 46 53
111 187 202 40 46 53
108 188 200 39 45 51
108 188 201 39 45 51
108 189 201 39 45 51
109 188 201 38 45 52
109 189 201 38 45 52
108 190 200 38 44 51
108 190 201 37 44 51
108 191 200 38 45 51
109 190 201 37 44 51
109 191 200 37 44 51
109 191 201 38 44 51
110 188 201 38 45 52
110 189 201 39 45 53
111 188 201 39 46 53
111 189 201 39 46 53
110 188 202 39 46 53
111 188 202 40 46 53
111 189 202 39 45 53
110 190 201 38 45 52
110 191 201 38 44 52
111 190 201 39 46 53
111 191 201 39 45 52
111 190 202 39 45 52
111 191 202 38 45 52
112 160 201 37 43 50
112 161 201 37 43 50
112 160 202 37 44 50
113 160 202 37 43 50
113 161 202 37 43 50
112 162 201 38 44 51
112 163 201 38 44 50
113 162 202 38 44 50
113 163 202 37 43 50
114 160 203 37 43 50
114 161 202 36 43 49
114 161 203 37 43 50
114 162 202 36 43 49
114 162 203 36 43 50
114 163 202 36 42 49
114 163 203 36 42 49
115 162 203 37 43 50
115 163 203 36 43 49
115 160 204 37 43 50
115 161 204 37 43 50
115 162 204 37 43 50
115 163 204 37 43 50
112 164 201 37 43 50
112 165 201 36 42 49
112 165 202 37 43 49
113 164 202 36 42 48
113 165 202 37 43 49
112 166 201 37 43 49
112 167 201 37 42 49
112 166 202 36 42 49
112 167 202 36 42 49
113 166 202 37 43 49
113 167 202 36 42 49
114 164 202 36 42 49
114 164 203 36 42 49
114 165 202 36 42 49
114 165 203 37 43 50
115 164 203 37 43 50
115 165 203 38 44 50
114 166 203 37 43 49
114 167 203 36 42 49
115 166 203 37 43 49
115 167 203 37 43 49
115 164 204 38 44 50
115 165 204 38 44 51
115 166 204 38 43 50
116 160 204 37 44 51
116 160 205 37 44 51
116 161 204 37 43 50
116 161 205 38 44 51
117 160 205 38 45 53
117 161 205 39 45 53
117 160 206 39 45 53
117 161 206 39 46 53
116 162 204 38 44 51
116 163 204 38 44 51
117 162 205 38 45 52
117 163 205 39 45 52
117 162 206 39 46 53
118 160 206 40 47 55
118 160 207 41 48 56
118 161 206 40 47 54
118 161 207 42 49 57
119 160 207 43 50 58
119 161 207 43 50 58
118 162 206 40 47 54
118 163 206 41 47 55
119 162 207 44 51 59
119 163 207 42 49 56
116 167 203 37 43 49
116 164 204 39 44 51
116 165 204 39 44 51
117 164 204 39 45 52
117 164 205 40 46 53
117 165 204 39 45 52
117 165 205 39 46 53
116 166 204 38 44 50
116 167 204 38 44 50
117 166 204 38 44 51
117 166 205 39 45 52
117 167 204 40 45 52
117 167 205 41 46 53
118 164 206 42 48 55
118 165 206 40 47 54
119 164 206 41 47 55
119 164 207 41 48 56
119 165 206 40 46 54
119 165 207 41 48 56
118 166 205 40 46 53
118 167 205 41 47 54
118 166 206 40 46 54
119 166 206 41 47 54
119 166 207 42 48 56
119 167 206 41 47 55
119 167 207 40 47 55
112 168 201 37 42 49
112 169 201 36 42 48
112 168 202 36 42 49
112 169 202 36 42 48
113 168 202 36 42 49
113 169 202 36 42 49
112 170 201 36 42 48
112 171 201 36 42 48
112 170 202 36 42 49
112 171 202 36 42 49
113 170 202 36 43 49
113 171 202 37 43 49
114 168 203 36 42 49
114 169 203 36 42 49
115 168 203 37 43 50
115 169 203 37 43 50
114 170 202 36 43 49
114 170 203 36 43 50
114 171 202 37 43 50
114 171 203 37 43 50
115 170 203 37 44 50
115 171 203 38 44 51
112 172 201 36 42 49
112 172 202 36 42 49
112 173 202 36 42 49
113 172 202 37 43 49
113 173 202 37 43 49
112 174 201 36 42 49
112 175 201 36 42 49
112 174 202 36 42 49
112 175 202 36 43 49
113 174 202 37 43 50
113 175 202 37 43 50
114 172 202 37 43 50
114 172 203 37 43 50
114 173 202 37 43 50
114 173 203 38 44 51
115 172 203 39 45 52
115 173 203 40 46 52
114 174 202 37 43 50
114 174 203 38 44 51
114 175 203 38 44 51
115 174 203 40 46 53
115 175 203 39 45 52
115 175 204 40 46 53
116 168 203 37 43 50
116 169 203 37 43 50
116 170 203 38 44 51
116 171 203 39 45 52
116 168 204 38 44 51
116 169 204 39 44 51
117 168 204 40 46 52
117 168 205 41 47 54
117 169 204 40 46 53
117 169 205 41 47 54
116 170 204 40 46 52
116 171 204 40 46 53
117 170 204 41 47 54
117 170 205 41 47 54
117 171 204 41 47 54
117 171 205 41 47 54
118 168 205 41 47 54
118 169 205 41 47 54
118 169 206 41 47 54
119 168 206 41 47 55
119 168 207 40 48 56
119 169 206 40 47 55
119 169 207 40 48 56
118 170 205 41 47 54
118 171 205 41 47 54
118 170 206 40 47 54
118 171 206 41 47 55
119 170 206 40 47 55
119 170 207 40 48 56
119 171 206 41 48 55
119 171 207 41 48 56
116 172 204 41 47 54
116 173 204 41 47 54
117 172 204 41 47 54
117 172 205 41 47 55
117 173 204 41 48 55
117 173 205 41 48 55
116 174 204 41 47 54
116 175 204 41 47 54
117 174 204 41 47 55
117 174 205 41 48 56
117 175 205 41 48 56
118 172 205 41 47 55
118 173 205 40 47 55
118 172 206 40 47 55
118 173 206 41 48 56
119 172 206 40 47 55
119 172 207 40 47 55
119 173 206 41 48 56
119 173 207 41 48 56
118 174 205 41 48 56
118 175 205 42 50 58
118 174 206 43 50 57
118 175 206 43 50 58
119 174 206 45 52 59
119 174 207 43 49 57
119 175 206 44 51 59
119 175 207 43 50 58
120 170 207 41 49 57
120 171 207 42 49 57
120 172 207 40 48 56
120 173 207 40 48 56
119 160 208 45 53 61
119 160 209 47 54 62
119 161 208 46 54 62
119 162 208 46 53 61
119 163 208 43 50 58
119 164 208 44 51 59
120 160 209 47 55 63
120 161 209 47 55 63
120 160 210 47 55 64
120 161 210 47 55 64
121 160 210 48 55 64
121 160 211 47 55 63
121 161 210 48 55 64
121 161 211 48 55 64
120 162 208 46 54 62
120 162 209 47 54 62
120 163 208 45 52 60
120 163 209 48 55 63
121 162 210 49 56 64
121 162 211 48 55 63
121 163 210 49 56 64
121 163 211 48 55 64
122 162 211 47 55 63
122 163 211 47 54 63
121 160 212 46 54 62
121 161 212 46 54 62
122 160 212 46 53 60
122 160 213 45 51 58
122 161 212 45 52 60
122 161 213 45 51 59
123 160 213 43 49 56
123 161 213 46 52 58
122 160 214 44 50 57
123 160 214 42 48 54
123 160 215 42 47 53
123 161 214 46 51 57
122 162 212 46 52 60
122 163 212 46 52 60
123 162 213 46 52 58
123 163 213 45 50 57
123 162 214 45 50 56
123 163 214 44 49 55
120 164 208 46 53 61
120 164 209 49 55 63
120 165 208 45 52 60
120 165 209 47 54 62
121 164 209 49 56 64
121 165 209 48 55 63
121 164 210 49 56 64
121 164 211 48 55 63
121 165 210 48 55 63
121 165 211 47 54 62
120 166 208 44 51 59
120 166 209 46 53 61
120 167 208 42 50 58
120 167 209 45 52 60
121 166 209 46 53 61
121 166 210 46 54 62
121 166 211 46 54 62
121 167 210 46 53 61
121 167 211 45 53 61
122 164 211 47 55 63
122 165 211 46 54 62
122 166 211 47 54 62
122 164 212 47 53 61
122 165 212 47 53 61
123 164 212 46 52 59
123 164 213 46 51 57
123 165 212 47 53 60
123 165 213 46 52 58
123 164 214 44 49 55
123 165 214 46 51 57
122 166 212 47 53 61
122 167 212 47 53 61
123 166 213 47 53 59
123 167 213 47 53 59
123 166 214 46 51 57
123 167 214 46 52 58
124 160 215 42 47 52
124 161 215 42 47 53
124 162 215 42 47 53
124 163 215 42 47 53
124 164 214 44 49 55
124 164 215 43 48 54
124 165 214 45 50 56
124 165 215 44 49 55
124 166 214 46 51 58
