ply
format ascii 1.0
element vertex 2233
property float x
property float y
property float z
property uchar red
property uchar green
property uchar blue
end_header
99 371 226 46 55 66
96 368 229 47 57 67
96 369 229 46 56 67
97 368 228 48 58 68
97 369 228 48 58 69
96 370 229 46 56 67
96 371 228 46 57 68
96 371 229 46 56 67
97 370 228 47 58 69
97 371 228 48 58 69
97 372 227 48 58 69
97 373 227 47 57 68
97 374 227 47 57 67
97 375 227 48 58 68
99 372 225 45 55 65
99 373 225 44 54 64
98 372 226 46 56 67
98 372 227 48 58 68
98 373 226 46 56 67
98 373 227 47 58 68
99 372 226 45 55 66
99 373 226 45 55 66
99 374 225 45 55 65
99 375 225 45 55 65
98 374 226 47 57 68
98 374 227 48 58 69
98 375 226 47 57 68
99 374 226 46 56 66
99 375 226 46 56 66
96 372 229 47 57 68
96 373 228 46 57 67
96 373 229 46 56 67
97 372 228 48 58 69
97 373 228 47 57 68
96 374 228 47 57 67
96 374 229 47 56 66
96 375 228 47 57 67
96 375 229 47 56 66
97 374 228 47 57 67
97 375 228 48 57 67
100 368 224 45 53 62
100 368 225 45 54 63
100 369 224 44 53 62
100 369 225 45 54 63
101 368 224 45 53 61
101 369 224 44 52 61
100 370 224 44 53 62
100 370 225 45 54 63
100 371 224 44 53 62
100 371 225 44 54 63
101 370 224 43 52 61
101 371 224 43 52 61
100 372 224 43 52 62
100 372 225 43 53 63
100 373 224 43 52 62
100 373 225 43 53 63
101 372 224 42 51 61
101 373 224 42 52 61
100 374 224 43 53 63
100 374 225 44 54 64
100 375 224 43 53 63
100 375 225 45 54 64
101 374 224 43 52 61
101 375 224 43 52 62
97 376 227 48 58 68
97 377 227 48 57 67
97 378 226 47 57 67
97 378 227 48 57 67
97 379 226 48 58 67
97 379 227 47 56 66
99 376 225 46 56 66
99 377 225 47 56 66
98 376 226 48 58 68
98 377 226 48 58 68
99 376 226 47 57 67
99 378 225 47 57 68
99 379 224 46 57 67
99 379 225 48 58 68
98 378 226 48 57 68
98 379 226 49 58 69
96 376 228 48 57 67
96 376 229 46 56 65
96 377 228 47 56 66
96 377 229 46 55 65
96 378 228 46 56 65
96 378 229 45 54 64
96 379 228 46 55 64
96 379 229 45 54 63
97 380 226 48 57 67
97 380 227 46 55 65
97 381 226 47 57 66
97 381 227 46 55 65
97 382 226 48 57 67
97 382 227 46 55 64
97 383 226 48 56 66
97 383 227 46 55 64
99 380 224 47 57 68
99 380 225 49 59 69
99 381 224 48 58 69
99 381 225 50 60 70
98 380 226 48 58 68
98 381 226 49 58 68
99 382 224 49 59 70
99 382 225 50 59 70
99 383 224 49 59 70
99 383 225 49 59 69
98 382 226 49 58 68
98 383 226 49 58 68
96 380 228 44 54 63
96 380 229 44 53 63
96 381 228 44 54 63
96 381 229 44 53 63
96 382 228 44 54 63
96 382 229 45 54 64
96 383 228 44 54 63
96 383 229 46 55 64
100 376 224 43 53 63
100 377 224 44 54 64
100 378 224 45 55 65
100 379 224 45 55 66
100 380 224 46 56 67
100 381 224 46 57 67
100 382 224 47 58 68
100 383 224 47 58 69
127 407 191 48 56 65
127 408 191 47 56 65
127 409 191 47 56 65
127 410 191 46 55 65
127 411 191 46 55 64
125 414 191 48 56 65
125 415 191 48 56 65
126 413 191 48 56 65
127 412 191 47 55 65
127 413 191 48 56 65
126 414 191 47 55 64
126 415 190 47 56 64
126 415 191 48 56 64
127 414 190 47 56 65
127 414 191 48 56 65
127 415 190 47 56 65
123 420 191 48 56 65
123 421 191 48 56 65
122 423 191 48 56 65
123 422 191 48 56 65
123 423 190 48 56 65
123 423 191 48 56 65
124 416 191 49 56 65
124 417 191 47 55 64
125 416 190 47 55 63
125 416 191 47 55 64
125 417 190 48 55 64
125 417 191 48 56 64
124 418 191 47 55 64
124 419 191 46 55 63
125 418 190 48 56 64
125 418 191 47 55 64
125 419 190 48 56 64
125 419 191 47 55 64
126 417 189 46 54 63
127 416 189 48 56 64
127 417 189 48 56 64
126 416 190 47 55 64
126 417 190 47 55 63
127 416 190 48 56 64
126 418 189 47 55 63
126 419 189 48 55 63
127 418 188 49 56 64
127 418 189 49 56 63
127 419 188 49 56 63
127 419 189 49 55 63
126 418 190 48 55 64
126 419 190 49 56 64
127 421 187 48 56 64
126 423 187 49 56 65
127 422 187 48 56 64
127 423 186 49 56 64
127 423 187 48 56 64
125 420 189 49 56 64
125 421 189 48 56 65
124 420 190 47 55 64
124 420 191 48 56 64
124 421 190 47 56 64
124 421 191 48 56 65
125 420 190 48 56 64
125 421 190 48 56 64
124 423 189 48 56 65
125 422 189 48 56 65
125 423 188 46 55 63
125 423 189 48 56 65
124 422 190 48 56 65
124 422 191 48 56 65
124 423 190 48 56 65
126 420 188 48 56 64
126 420 189 49 56 64
126 421 188 49 56 65
127 420 188 48 56 64
127 421 188 48 55 63
126 422 188 49 56 65
126 422 189 48 56 65
126 423 188 47 55 64
122 424 191 48 56 64
122 425 191 47 55 64
123 424 190 48 56 65
123 424 191 48 56 65
123 425 190 47 55 64
123 425 191 48 55 64
123 427 189 47 55 63
122 426 191 48 55 64
122 427 191 48 55 63
123 426 190 48 55 64
123 426 191 47 55 64
123 427 190 47 55 63
121 428 191 47 55 63
121 429 191 47 55 63
121 430 191 47 55 63
121 431 191 46 54 62
123 428 189 48 55 63
123 429 189 47 55 63
122 428 190 48 55 64
122 428 191 47 55 63
122 429 190 47 55 63
122 429 191 47 55 63
123 428 190 48 55 64
123 429 190 47 55 63
122 431 189 47 54 62
123 430 188 48 55 63
123 430 189 47 54 63
123 431 188 51 57 65
123 431 189 48 55 63
122 430 190 46 54 62
122 430 191 48 55 64
122 431 190 46 54 62
125 427 187 48 56 64
126 424 187 49 56 64
126 425 187 48 55 64
127 424 186 49 56 64
127 424 187 49 56 65
127 425 186 48 56 64
127 426 185 49 56 64
127 427 185 49 56 64
126 426 186 48 56 64
126 426 187 48 55 63
126 427 186 48 55 63
126 427 187 48 55 64
127 426 186 49 56 64
127 427 186 49 56 64
124 424 189 47 55 64
124 425 189 47 56 64
125 424 188 47 55 64
125 424 189 47 55 64
125 425 188 48 56 64
125 425 189 47 56 64
124 424 190 47 55 64
124 425 190 48 56 64
124 426 189 46 55 63
124 427 189 48 55 64
125 426 188 47 55 64
125 426 189 47 55 63
125 427 188 48 56 64
126 424 188 47 55 63
126 425 188 48 56 64
125 428 187 47 55 62
125 429 187 49 55 63
124 431 187 56 61 68
125 430 187 53 59 66
125 431 186 57 62 69
125 431 187 58 63 69
127 428 185 51 57 64
127 429 185 56 61 68
126 428 186 48 55 63
126 428 187 47 55 63
126 429 186 50 57 64
126 429 187 49 55 63
127 428 186 49 55 63
127 429 186 53 60 67
127 430 185 56 61 68
127 431 185 52 58 66
126 430 186 56 61 69
126 431 186 55 61 68
127 430 186 57 62 69
124 428 188 49 56 64
124 428 189 47 55 63
124 429 188 47 54 62
124 429 189 48 55 63
125 428 188 49 56 63
125 429 188 47 54 62
124 430 188 49 55 63
124 431 188 54 59 66
119 436 191 52 57 64
119 437 191 52 57 64
119 438 191 48 55 62
119 439 191 48 55 63
119 440 191 50 56 63
119 441 191 52 57 64
119 442 191 53 58 64
119 443 191 50 56 64
119 444 191 49 56 64
119 445 191 49 57 65
119 446 191 46 55 65
119 447 191 44 54 64
127 438 183 51 58 67
127 439 183 50 58 67
120 432 191 47 54 62
120 433 191 47 54 62
121 432 190 49 55 62
121 432 191 47 54 62
121 433 190 52 57 64
121 433 191 49 56 63
120 434 191 50 56 63
120 435 191 53 58 65
121 434 190 54 59 65
121 434 191 53 58 65
121 435 190 52 57 63
122 432 189 51 58 65
122 433 189 56 61 67
123 432 188 57 62 69
123 433 188 56 61 67
123 433 189 57 61 68
122 432 190 49 56 63
122 433 190 52 58 65
122 434 189 54 58 65
122 435 188 48 54 61
122 435 189 50 56 62
123 434 188 51 56 63
123 435 188 47 53 61
123 436 187 47 53 60
123 437 187 58 62 69
123 438 187 58 62 68
123 439 187 52 58 66
121 436 189 48 54 61
121 437 189 48 53 61
120 436 191 51 57 64
120 437 190 49 55 62
120 437 191 50 55 62
121 436 190 50 56 63
121 437 190 48 54 61
121 438 189 51 57 64
121 439 189 54 59 67
120 438 190 49 56 64
120 438 191 47 54 62
120 439 190 51 57 64
120 439 191 50 56 64
121 438 190 50 56 64
121 439 190 51 57 65
122 436 188 48 54 61
122 436 189 48 54 61
122 437 188 50 56 63
122 437 189 48 54 61
123 436 188 48 54 61
123 437 188 53 57 64
122 438 188 54 59 66
122 438 189 50 56 63
122 439 188 56 61 68
123 438 188 58 62 68
123 439 188 55 60 68
124 432 187 57 62 68
124 433 187 53 59 65
125 432 186 53 59 66
125 432 187 55 60 67
125 433 186 50 56 63
125 433 187 51 56 63
124 434 187 49 55 62
124 435 187 47 53 60
125 434 186 47 53 60
125 434 187 49 55 61
125 435 186 49 55 62
126 432 185 50 56 63
126 433 185 49 55 62
127 432 185 50 56 63
127 433 184 51 56 63
127 433 185 48 54 61
126 432 186 52 57 64
126 433 186 49 55 62
126 434 185 49 54 61
126 435 185 54 59 66
127 434 184 55 60 67
127 434 185 53 58 64
127 435 184 56 61 67
126 434 186 46 52 60
126 435 186 50 55 62
124 432 188 58 62 69
125 437 185 54 60 66
124 436 186 54 59 66
124 436 187 51 56 63
124 437 186 56 61 68
124 437 187 57 61 68
125 436 186 55 60 66
125 437 186 55 61 67
125 438 185 52 59 67
125 439 185 50 57 65
124 438 186 53 59 67
124 438 187 55 60 67
124 439 186 51 58 66
125 438 186 52 59 66
125 439 186 50 57 65
126 436 185 55 60 67
126 437 184 53 59 67
126 437 185 53 59 66
127 436 184 53 58 65
127 437 184 52 59 67
126 438 184 52 59 67
126 438 185 52 59 67
126 439 184 52 59 68
126 439 185 51 58 66
127 438 184 52 59 67
127 439 184 50 58 67
127 440 183 49 58 67
127 441 183 46 55 65
127 442 183 45 54 64
127 443 183 45 54 63
126 444 183 46 54 62
126 445 183 46 53 62
127 444 183 46 54 63
127 445 182 46 54 62
127 445 183 46 54 62
127 446 182 45 53 62
127 446 183 45 54 62
127 447 182 45 53 62
127 447 183 45 54 62
122 441 187 48 55 64
123 440 187 48 56 64
123 441 186 50 58 66
123 441 187 49 57 65
123 442 187 49 57 66
123 443 186 45 54 63
123 443 187 48 56 65
121 440 189 54 60 68
121 441 188 48 56 64
121 441 189 51 57 65
120 440 190 53 58 66
120 440 191 51 57 65
120 441 190 54 59 66
120 441 191 54 59 66
121 442 188 49 57 66
121 442 189 49 56 64
121 443 188 51 59 67
121 443 189 50 58 66
120 442 190 51 57 65
120 443 190 48 56 64
122 440 188 51 58 66
122 441 188 49 56 65
122 442 188 51 58 67
122 443 188 50 58 66
123 444 186 43 53 62
123 444 187 44 53 62
123 445 186 43 52 61
123 445 187 44 53 62
123 446 186 43 51 60
123 446 187 43 52 61
123 447 186 44 52 61
123 447 187 44 52 61
121 444 188 48 56 65
121 444 189 49 57 66
121 445 188 44 53 61
121 445 189 46 54 63
120 444 190 49 57 66
120 445 190 48 56 65
121 446 188 44 53 61
121 446 189 45 53 62
121 447 188 43 52 61
121 447 189 44 53 62
120 446 190 45 54 63
120 447 190 44 53 63
122 444 188 47 55 63
122 445 188 44 53 61
122 446 188 43 52 61
122 447 188 43 52 61
125 440 185 51 58 66
125 441 185 48 56 65
124 440 186 50 57 65
124 441 186 50 57 66
125 442 185 44 54 63
125 443 185 43 52 62
124 442 186 47 56 65
124 443 186 44 53 63
126 440 184 49 57 66
126 440 185 50 57 66
126 441 184 47 56 65
126 441 185 47 55 65
127 440 184 49 58 67
127 441 184 46 55 65
126 442 184 46 54 63
126 442 185 44 53 63
126 443 184 44 53 62
127 442 184 46 54 64
124 444 185 43 52 61
124 445 185 43 52 60
125 444 185 43 51 60
125 445 185 43 52 60
124 444 186 43 52 62
124 445 186 43 52 60
124 446 185 44 52 61
124 447 185 45 53 61
125 446 185 45 52 61
125 447 185 45 53 61
124 446 186 43 51 60
124 447 186 45 53 61
126 444 184 44 52 61
126 445 184 45 53 61
126 446 184 46 53 62
126 447 184 46 54 62
93 385 231 47 55 64
93 386 231 47 55 64
93 387 231 46 54 63
95 384 229 48 57 66
95 385 229 48 56 66
94 384 230 48 57 66
94 384 231 48 56 65
94 385 230 49 57 66
94 385 231 47 56 65
95 384 230 47 56 66
95 385 230 49 57 67
95 386 229 48 57 66
95 387 229 47 56 65
94 386 230 48 56 65
94 386 231 47 56 65
94 387 230 48 56 65
94 387 231 47 55 64
95 386 230 48 56 65
95 387 230 47 56 65
93 388 231 46 55 63
93 389 231 46 54 63
93 390 231 45 53 62
94 388 229 45 54 64
94 389 229 46 55 64
95 388 228 46 55 64
95 388 229 45 54 64
95 389 228 45 54 64
95 389 229 45 54 63
94 388 230 46 55 64
94 388 231 46 54 63
94 389 230 46 54 64
94 389 231 45 54 63
95 390 228 45 54 64
95 390 229 45 54 64
95 391 228 45 55 64
95 391 229 45 54 64
94 390 230 44 53 63
94 390 231 45 53 62
94 391 230 44 53 63
94 391 231 44 53 62
91 384 235 41 48 56
91 385 235 41 48 56
91 386 235 42 49 56
91 387 235 41 49 56
90 384 237 43 49 55
91 384 236 42 49 56
91 384 237 43 49 56
91 385 236 42 49 56
91 385 237 43 49 56
90 384 238 43 49 56
90 384 239 44 50 57
90 385 238 43 49 56
90 385 239 43 49 56
91 386 236 41 48 55
91 386 237 42 48 55
91 387 236 42 49 57
91 387 237 42 49 57
90 386 238 43 50 57
90 386 239 42 49 57
90 387 238 44 50 58
90 387 239 43 51 59
91 388 235 42 50 58
91 389 235 42 51 60
91 390 235 44 53 62
91 391 235 43 52 62
90 389 237 44 52 61
91 388 236 43 50 59
91 388 237 43 50 58
91 389 236 42 50 59
91 389 237 43 51 59
90 388 238 44 52 60
90 388 239 45 53 62
90 389 238 45 53 62
90 389 239 45 54 63
91 390 236 43 52 61
91 390 237 43 52 61
91 391 236 43 52 62
91 391 237 44 53 62
90 390 238 44 53 62
90 390 239 45 53 63
90 391 238 44 53 62
90 391 239 44 53 63
91 391 238 44 54 63
92 384 233 44 51 60
92 385 233 43 51 59
93 384 232 46 54 62
93 384 233 44 52 60
93 385 232 45 53 62
93 385 233 44 51 60
92 384 234 42 50 58
92 384 235 41 49 57
92 385 234 41 49 57
92 385 235 41 49 56
92 386 233 42 50 59
92 387 233 42 50 59
93 386 232 45 53 61
93 386 233 43 51 60
93 387 232 44 52 61
93 387 233 43 51 60
92 386 234 41 48 57
92 386 235 41 49 56
92 387 234 41 49 57
92 387 235 41 49 57
92 388 233 42 51 60
92 389 233 43 52 61
93 388 232 44 53 61
93 388 233 42 51 59
93 389 232 44 52 61
93 389 233 43 51 60
92 388 234 42 50 59
92 388 235 42 50 58
92 389 234 43 51 60
92 389 235 43 51 60
93 390 232 45 53 62
93 390 233 44 52 61
93 391 232 44 53 62
93 391 233 45 53 62
92 390 234 45 53 62
92 390 235 45 53 62
92 391 234 44 53 63
92 391 235 43 53 62
93 391 234 45 54 63
94 391 232 44 53 62
95 392 228 45 55 65
95 392 229 45 54 64
95 393 228 45 55 65
95 393 229 46 56 66
94 392 230 45 54 64
94 392 231 44 53 62
94 393 230 45 54 64
94 393 231 45 54 64
95 392 230 45 54 64
95 393 230 45 55 65
95 394 228 47 57 67
95 394 229 46 56 66
95 395 228 48 57 67
95 395 229 47 56 66
94 394 230 44 54 64
94 394 231 45 54 64
94 395 230 45 55 64
94 395 231 45 54 64
95 394 230 45 54 64
95 395 230 46 56 66
95 396 228 47 57 66
95 396 229 46 56 66
95 397 228 46 56 66
95 397 229 46 55 65
94 396 230 47 55 65
94 396 231 46 55 64
94 397 230 46 55 64
94 397 231 45 53 63
95 396 230 46 55 65
95 397 230 47 56 65
95 398 228 46 55 65
95 398 229 46 55 64
95 399 228 46 55 65
95 399 229 45 54 63
94 398 230 45 53 63
94 398 231 45 53 62
94 399 231 44 52 60
95 398 230 45 54 63
95 399 230 44 52 62
91 392 236 43 52 62
91 392 237 44 54 63
91 393 236 44 53 62
91 393 237 44 53 62
90 392 239 44 53 63
91 392 238 45 54 63
91 392 239 44 53 63
91 393 238 43 53 63
91 393 239 43 53 63
91 394 236 42 51 60
91 394 237 43 52 62
91 395 236 42 51 60
91 395 237 41 50 60
91 394 238 42 51 61
91 394 239 42 52 61
91 395 238 41 50 60
91 395 239 41 50 60
91 396 237 41 50 59
91 397 237 41 50 58
91 396 238 40 49 58
91 396 239 40 49 59
91 397 238 42 50 59
91 397 239 41 49 58
91 398 238 42 50 59
91 398 239 42 50 59
93 392 232 45 54 64
93 392 233 45 54 64
93 393 232 45 55 64
93 393 233 45 54 64
92 392 234 45 54 64
92 392 235 44 53 63
92 393 234 45 54 64
92 393 235 44 53 63
93 392 234 45 54 63
93 393 234 45 54 64
93 394 233 44 53 62
93 395 233 44 53 62
92 394 234 44 52 62
92 394 235 43 52 61
92 395 234 44 52 61
92 395 235 43 51 60
93 394 234 44 53 62
93 395 234 44 53 61
94 392 232 44 53 63
94 393 232 44 53 63
94 394 232 44 53 62
94 395 232 44 53 63
94 395 233 44 52 62
92 392 236 42 52 62
92 393 236 43 53 62
92 394 236 42 51 61
92 395 236 42 50 59
93 396 233 43 51 60
93 397 233 43 51 59
92 396 235 43 51 60
92 397 235 43 51 59
93 396 234 43 51 60
93 397 234 43 51 59
93 398 233 43 51 59
93 399 233 42 50 58
92 398 235 43 51 59
92 399 235 43 51 59
93 398 234 43 51 59
93 399 234 43 51 59
94 396 232 44 53 62
94 396 233 44 52 61
94 397 232 44 52 61
94 397 233 43 51 60
94 398 232 44 52 60
94 398 233 43 51 59
94 399 232 43 51 60
94 399 233 42 50 58
92 396 236 43 51 60
92 396 237 42 50 59
92 397 236 42 50 59
92 397 237 42 50 59
92 398 236 42 50 58
92 398 237 42 50 58
92 399 236 43 51 59
92 399 237 43 51 59
92 398 238 42 50 59
92 398 239 43 51 59
92 399 238 43 51 59
92 399 239 43 51 59
89 384 240 44 50 58
89 384 241 43 50 58
89 385 240 42 49 57
89 385 241 42 50 59
89 384 242 42 51 60
89 384 243 43 52 61
89 385 242 43 52 61
89 385 243 43 52 62
89 386 240 42 49 57
89 386 241 43 51 60
89 387 240 43 51 59
89 387 241 44 52 61
89 386 242 44 53 62
89 386 243 45 54 63
89 387 242 45 54 63
89 387 243 46 55 64
90 387 240 44 52 61
89 384 244 43 52 62
89 384 245 43 53 63
89 385 244 45 54 63
89 385 245 44 54 63
89 384 246 44 53 63
89 384 247 44 53 63
89 385 246 44 53 63
89 385 247 44 53 63
89 386 244 45 54 64
89 386 245 45 54 64
89 387 244 46 55 65
89 387 245 46 55 65
89 386 246 45 54 64
89 386 247 45 55 64
89 387 246 46 55 65
89 387 247 47 56 66
90 387 247 47 57 66
89 388 241 46 54 63
89 389 241 47 56 65
89 388 242 48 56 65
89 388 243 47 56 66
89 389 242 48 57 66
89 389 243 48 57 66
90 388 240 45 53 63
90 388 241 46 54 63
90 389 240 45 54 64
90 389 241 47 56 65
90 389 242 47 56 66
90 389 243 48 57 66
90 390 240 45 54 64
90 390 241 46 55 65
90 391 240 44 53 63
90 391 241 45 54 64
90 390 242 47 56 66
90 390 243 47 56 66
90 391 242 46 55 65
90 391 243 45 55 64
89 388 244 47 56 66
89 388 245 46 56 66
89 389 244 48 57 67
89 388 246 47 56 66
90 389 244 48 57 67
90 389 245 47 56 67
90 388 246 47 56 66
90 388 247 48 57 67
90 389 246 47 57 67
90 389 247 47 57 67
90 390 244 48 57 67
90 390 245 47 56 67
90 391 244 44 54 64
90 391 245 45 54 64
90 390 246 47 56 66
90 390 247 46 55 66
90 391 246 45 54 64
90 391 247 44 53 63
89 384 248 45 53 63
89 384 249 45 54 63
89 385 248 44 54 63
89 385 249 46 55 64
89 384 250 46 54 64
89 384 251 45 54 64
89 385 250 49 57 66
89 385 251 49 58 67
89 386 248 46 55 65
89 386 249 48 56 66
90 386 248 47 56 66
90 386 249 49 57 67
90 387 248 47 56 66
90 387 249 48 57 67
90 386 250 50 58 68
90 386 251 51 60 70
90 387 250 49 58 69
90 387 251 50 60 70
89 384 252 46 56 66
89 384 253 47 57 68
89 385 252 47 57 67
89 385 253 48 58 69
89 384 254 49 59 69
89 384 255 49 59 69
89 385 254 50 60 70
89 385 255 49 59 69
90 385 253 49 59 69
90 385 254 50 59 70
90 385 255 48 57 68
90 386 252 50 60 70
90 386 253 49 59 70
90 387 252 50 60 71
90 387 253 50 61 72
90 386 254 49 59 70
90 386 255 47 57 67
90 387 254 49 60 71
90 387 255 47 57 68
90 388 248 48 57 68
90 388 249 48 57 68
90 389 248 47 57 68
90 389 249 46 57 68
90 388 250 47 57 68
90 388 251 47 58 68
90 389 250 45 56 67
90 389 251 44 55 66
90 390 248 45 55 65
90 390 249 44 54 65
90 391 248 44 53 63
90 391 249 43 53 63
90 390 250 43 53 64
90 390 251 43 54 64
90 391 250 43 53 63
90 391 251 43 53 63
90 388 252 47 57 68
90 388 253 48 59 71
90 389 252 44 56 67
90 389 253 46 58 69
90 388 254 49 59 71
90 388 255 48 58 69
90 389 254 48 59 70
90 389 255 47 57 69
90 390 252 45 56 66
90 390 253 47 58 69
90 391 252 45 55 65
90 391 253 46 57 68
91 391 253 45 56 67
90 390 254 47 58 69
90 390 255 47 57 68
90 391 254 46 57 68
91 390 255 45 56 67
91 391 254 46 57 68
91 391 255 44 55 66
90 392 240 44 53 63
90 392 241 45 54 63
90 393 240 44 53 63
90 393 241 45 53 63
90 392 242 46 54 64
90 392 243 44 53 63
90 393 242 45 53 63
90 393 243 44 53 62
90 394 240 44 53 62
90 394 241 44 52 62
90 395 241 42 51 60
91 394 240 43 52 61
91 395 240 41 50 60
91 395 241 42 51 60
90 394 242 44 53 62
90 394 243 44 53 62
90 395 242 43 52 61
91 394 243 44 53 62
91 395 242 42 51 60
91 395 243 42 52 61
90 392 244 42 52 62
90 392 245 43 53 62
90 393 244 44 53 63
90 393 245 43 53 63
91 393 245 44 53 63
90 392 246 43 53 63
90 392 247 44 53 62
90 393 246 43 53 63
91 392 247 43 52 61
91 393 246 44 53 63
91 393 247 44 53 63
90 394 244 44 53 62
91 394 244 45 54 63
91 394 245 45 54 64
91 395 244 44 53 63
91 395 245 46 55 64
91 394 246 45 54 64
91 394 247 45 54 64
91 395 246 46 55 65
91 395 247 46 56 66
91 396 240 41 50 59
91 396 241 42 51 60
91 397 240 41 50 58
91 397 241 42 50 59
91 396 242 42 51 60
91 396 243 43 52 62
91 397 242 43 51 60
91 397 243 44 53 62
91 398 240 43 50 59
91 398 241 43 51 59
91 399 240 43 51 59
91 399 241 45 52 61
91 398 242 44 52 60
91 398 243 44 53 62
91 399 242 46 54 62
91 399 243 45 54 63
91 396 244 45 54 63
91 396 245 47 56 65
91 397 244 45 54 63
91 397 245 48 56 65
91 396 246 47 55 65
91 396 247 46 55 66
91 397 246 47 56 65
91 397 247 46 55 65
91 398 244 45 53 62
91 398 245 46 54 63
91 398 246 47 55 65
91 398 247 46 55 65
92 399 240 43 50 58
92 399 241 44 52 60
92 399 243 46 54 63
92 398 245 45 54 63
92 399 244 46 54 63
92 399 245 46 54 63
92 398 246 45 54 63
92 398 247 46 55 64
92 399 246 45 53 62
92 399 247 45 53 62
90 392 248 43 52 61
90 392 249 42 51 60
91 393 248 43 52 62
91 393 249 42 51 61
90 392 250 42 51 60
90 392 251 42 52 62
91 392 250 42 50 60
91 392 251 43 52 62
91 393 250 42 51 60
91 393 251 44 53 62
91 394 248 43 53 63
91 394 249 44 53 62
91 395 248 46 55 65
91 395 249 46 55 65
91 394 250 43 52 62
91 394 251 45 54 64
91 395 250 45 55 65
91 395 251 46 56 66
90 392 252 44 54 64
91 392 252 44 55 65
91 392 253 45 56 67
91 393 252 44 54 65
91 393 253 46 56 67
91 392 254 46 57 68
91 392 255 45 55 66
91 393 254 47 57 68
91 393 255 47 56 66
91 394 252 48 57 68
91 394 253 48 58 69
91 395 252 48 58 69
91 395 253 50 60 70
91 394 254 48 58 69
91 394 255 47 56 66
91 395 254 49 59 69
91 395 255 47 57 67
91 396 248 46 56 66
91 396 249 47 56 67
91 397 248 46 56 66
91 397 249 46 56 67
91 396 250 47 57 67
91 396 251 47 57 67
91 397 250 47 57 68
91 397 251 48 58 69
91 398 248 46 55 65
91 398 249 46 56 67
91 398 250 46 56 67
91 398 251 48 58 69
91 396 252 49 58 69
91 396 253 49 59 69
91 397 252 50 59 69
91 397 253 49 59 69
91 396 254 48 58 68
91 396 255 49 58 68
91 397 254 47 57 67
91 398 252 50 59 69
92 395 255 47 56 65
92 398 248 46 55 65
92 398 249 46 56 66
92 399 248 45 54 64
92 399 249 45 55 65
92 398 250 46 56 67
92 398 251 47 57 68
92 399 250 45 55 66
92 399 251 46 57 67
92 397 253 48 58 68
92 396 255 47 56 66
92 397 254 46 56 66
92 397 255 46 55 65
92 398 252 49 58 69
92 398 253 48 57 68
92 399 252 46 56 66
92 399 253 45 55 65
92 398 254 47 56 66
92 398 255 47 56 65
92 399 254 45 54 64
92 399 255 46 55 64
95 400 229 44 53 62
95 401 229 44 53 62
94 400 231 43 51 60
94 401 231 43 51 60
95 400 230 43 52 61
95 401 230 44 52 61
95 401 231 43 51 60
94 402 231 44 52 60
95 402 230 44 53 62
95 402 231 44 52 61
95 403 230 45 53 62
95 403 231 45 53 61
95 404 230 44 53 63
95 404 231 44 53 62
95 405 231 44 53 63
95 406 231 44 54 64
95 407 231 44 54 64
93 400 233 42 50 58
93 401 233 43 51 59
92 400 235 44 51 59
92 401 235 45 52 61
93 400 234 43 51 59
93 400 235 44 51 59
93 401 234 44 51 60
93 401 235 45 52 61
93 402 234 43 51 60
93 402 235 45 53 62
93 403 234 44 52 61
93 403 235 45 53 62
94 400 232 43 51 59
94 400 233 43 51 59
94 401 232 43 51 59
94 401 233 43 51 60
94 402 232 44 52 60
94 402 233 44 52 60
94 403 232 45 53 61
94 403 233 44 52 61
94 403 234 44 52 60
92 400 236 44 52 60
92 400 237 44 51 60
92 401 236 45 53 61
92 401 237 44 52 60
92 400 238 44 51 60
92 400 239 44 51 59
92 401 238 44 52 61
92 401 239 44 52 60
92 402 236 45 53 62
92 402 237 44 53 63
92 403 236 44 54 63
92 403 237 44 54 64
93 402 236 45 53 62
93 403 236 45 54 63
92 402 238 44 53 62
92 402 239 44 53 63
92 403 238 45 55 64
92 403 239 46 55 65
93 404 234 45 54 63
93 404 235 46 55 64
93 405 234 45 54 63
93 405 235 45 54 64
93 406 234 46 55 65
93 406 235 46 55 65
93 407 235 45 54 64
94 404 232 44 53 62
94 404 233 45 53 62
94 405 232 45 54 63
94 405 233 45 54 63
95 405 232 44 53 63
94 404 234 45 53 62
94 405 234 45 54 63
94 406 232 45 54 64
94 406 233 45 54 64
94 407 232 44 54 64
94 407 233 44 54 63
95 406 232 45 54 64
95 407 232 44 54 64
94 406 234 45 54 64
94 407 234 44 53 63
92 404 237 45 55 65
92 405 237 45 55 65
93 404 236 46 55 65
93 404 237 45 55 66
93 405 236 45 55 65
93 405 237 45 55 65
92 404 238 45 55 65
92 404 239 46 55 65
92 405 238 45 55 65
92 405 239 45 54 64
93 405 238 44 54 64
93 405 239 44 54 64
93 406 236 45 55 65
93 406 237 44 54 64
93 407 236 44 54 64
93 407 237 43 53 63
93 406 238 44 53 63
93 406 239 44 54 64
93 407 238 42 52 62
93 407 239 43 53 62
95 408 231 43 53 64
95 409 231 43 53 63
95 410 231 42 52 62
95 411 231 42 52 61
95 412 231 42 52 61
95 413 231 42 52 61
93 408 235 44 54 64
94 408 232 43 53 63
94 408 233 44 53 63
94 409 233 44 53 62
95 408 232 43 53 63
95 409 232 43 53 63
95 409 233 43 53 62
94 408 234 43 53 62
94 408 235 44 53 63
94 409 234 43 52 62
94 409 235 42 52 62
94 410 233 43 52 62
95 410 232 42 52 62
95 410 233 42 52 61
95 411 232 41 51 61
95 411 233 42 52 61
94 410 234 43 52 62
94 410 235 44 53 62
94 411 234 42 52 62
94 411 235 43 52 62
93 408 236 43 53 63
93 408 237 42 52 62
93 409 236 43 52 61
93 409 237 43 52 61
93 408 238 43 52 61
93 408 239 44 53 62
93 409 238 45 54 63
93 409 239 46 54 64
93 410 237 44 52 61
93 410 238 45 53 62
93 410 239 46 54 63
93 411 238 45 54 63
93 411 239 46 54 63
94 409 236 42 52 61
94 410 236 44 52 62
94 411 236 44 52 61
94 411 237 43 52 61
94 411 238 44 53 62
95 412 232 42 51 61
95 412 233 43 52 62
95 413 232 42 52 61
95 413 233 43 53 62
94 412 234 44 53 63
94 412 235 43 52 62
94 413 234 44 54 63
94 413 235 44 53 62
95 412 234 43 53 62
95 413 234 44 53 63
95 414 232 43 52 62
95 414 233 43 53 63
95 415 232 44 53 63
95 415 233 45 54 64
94 414 234 44 53 63
94 414 235 45 54 63
94 415 235 43 53 62
95 414 234 44 53 63
95 415 234 44 53 63
95 415 235 44 53 63
94 412 236 44 52 62
94 412 237 45 53 62
94 413 236 43 52 61
94 413 237 44 53 62
94 412 238 46 54 62
94 412 239 46 54 63
94 413 238 46 54 62
94 413 239 47 54 63
94 414 236 43 52 62
94 414 237 44 52 61
94 415 236 43 53 62
94 415 237 44 52 62
94 414 238 46 53 61
94 414 239 47 54 62
94 415 238 47 54 63
94 415 239 46 54 62
92 400 240 44 51 60
92 400 241 45 53 61
92 401 240 44 52 61
92 401 241 45 53 62
92 400 242 47 54 63
92 400 243 47 55 64
92 401 242 45 54 63
92 401 243 46 54 64
92 402 240 45 54 63
92 402 241 46 55 64
92 403 240 47 55 65
92 403 241 46 55 65
92 402 242 46 55 64
92 402 243 46 54 64
92 403 242 46 55 65
92 403 243 45 54 64
92 400 244 47 55 64
92 400 245 47 55 64
92 401 244 46 54 64
92 401 245 46 54 62
92 400 246 45 53 62
92 400 247 44 52 61
92 401 246 45 52 61
92 401 247 44 52 61
92 402 244 44 53 62
92 402 245 44 52 61
92 403 244 43 51 61
92 403 245 44 51 60
92 402 246 45 52 61
92 402 247 45 52 61
92 403 246 45 52 61
92 403 247 46 54 62
92 404 240 46 55 65
92 404 241 44 54 64
92 405 240 45 54 64
92 405 241 44 54 64
92 404 242 44 53 64
92 404 243 44 53 63
92 405 242 43 53 62
92 405 243 44 52 61
92 406 241 44 54 64
93 406 240 44 54 64
93 406 241 45 54 64
93 407 240 44 53 63
93 407 241 44 54 63
92 406 242 45 53 63
92 406 243 45 53 62
93 406 242 45 53 63
93 406 243 45 53 62
93 407 242 45 54 63
93 407 243 46 54 63
92 404 244 44 52 61
92 404 245 44 52 61
92 405 244 44 52 61
92 405 245 44 52 61
93 405 245 44 52 61
92 404 246 45 53 61
92 404 247 46 54 62
92 405 246 44 52 61
93 404 247 46 54 63
93 405 246 43 52 61
93 405 247 43 52 62
92 406 244 44 52 61
93 406 244 44 52 61
93 406 245 44 52 61
93 407 244 45 53 62
93 407 245 45 53 63
93 406 246 44 53 62
93 406 247 44 53 62
93 407 246 45 54 63
93 407 247 46 55 64
92 400 248 44 53 62
92 400 249 44 54 64
92 401 248 44 52 62
92 401 249 44 54 64
92 400 250 45 55 66
92 400 251 46 56 67
92 401 250 46 56 66
92 401 251 46 56 67
92 402 248 44 53 62
92 402 249 45 54 64
92 403 248 46 55 64
92 403 249 46 56 65
93 403 249 46 56 66
92 402 250 46 56 66
92 402 251 46 56 66
92 403 250 47 56 66
93 403 250 47 56 67
93 403 251 46 56 66
92 400 252 45 55 65
92 400 253 43 53 63
92 401 252 45 55 65
92 401 253 43 53 63
92 400 254 44 53 63
92 400 255 45 54 63
92 401 254 43 53 63
92 401 255 44 53 63
93 401 255 46 54 64
92 402 252 45 55 65
92 402 253 45 54 64
93 402 252 44 54 64
93 402 253 44 53 63
93 403 252 45 54 64
93 403 253 44 53 63
93 402 254 44 53 63
93 402 255 45 54 64
93 403 254 45 54 63
93 403 255 45 54 64
92 404 248 46 55 64
92 404 249 46 56 65
93 404 248 45 53 63
93 404 249 46 55 65
93 405 248 44 53 63
93 405 249 45 55 65
93 404 250 47 57 67
93 404 251 46 56 66
93 405 250 45 55 66
93 405 251 45 55 65
93 406 248 45 54 64
93 406 249 45 54 64
93 407 248 46 55 65
93 407 249 46 55 65
93 406 250 45 55 66
93 406 251 46 55 66
93 407 250 46 56 67
93 407 251 46 56 66
93 404 252 45 54 64
93 404 253 44 54 63
93 405 252 45 55 65
93 405 253 45 54 64
93 404 254 45 54 64
93 404 255 45 54 65
93 405 254 45 54 64
93 405 255 45 54 64
93 406 252 45 54 64
93 406 253 44 53 63
93 407 252 45 55 65
93 407 253 45 54 64
93 406 254 44 53 63
93 406 255 46 55 65
93 407 254 45 54 64
93 407 255 46 55 65
94 407 254 46 55 65
94 407 255 47 56 65
93 408 240 45 54 63
93 408 241 45 54 64
93 409 240 46 55 64
93 409 241 47 55 65
93 408 242 46 55 64
93 408 243 46 54 64
93 409 242 47 56 65
93 409 243 46 55 64
93 410 240 47 55 64
93 410 241 46 55 64
93 411 240 45 54 63
93 411 241 44 53 62
93 410 242 46 54 64
93 410 243 45 54 64
93 411 242 44 53 62
93 411 243 44 53 63
93 408 244 45 54 63
93 408 245 46 55 64
93 409 244 45 54 64
93 409 245 46 55 64
93 408 246 46 55 64
93 408 247 46 55 64
93 409 246 46 55 65
93 409 247 46 55 65
93 410 244 44 53 63
93 410 245 44 53 62
93 411 244 44 53 62
93 411 245 44 53 62
93 410 246 45 54 63
93 410 247 45 54 64
93 411 246 44 53 63
93 411 247 43 53 63
93 412 240 44 53 62
93 412 241 43 52 62
93 412 242 43 52 62
93 412 243 42 52 62
94 412 240 45 54 63
94 412 241 44 53 62
94 413 240 47 54 63
94 413 241 46 54 63
94 412 242 43 52 61
94 412 243 43 52 62
94 413 242 45 53 62
94 413 243 44 52 62
94 414 240 47 55 63
94 414 241 46 54 63
94 415 240 46 54 63
94 415 241 46 54 63
94 414 242 45 53 63
94 414 243 44 52 62
94 415 242 45 54 63
94 415 243 44 52 62
93 412 244 43 52 62
93 412 245 43 52 61
93 412 246 43 52 61
93 412 247 43 53 63
94 412 244 44 52 62
94 412 245 43 52 61
94 413 244 44 52 61
94 413 245 44 52 61
94 413 246 44 52 61
94 413 247 45 54 64
94 414 244 42 51 60
94 414 245 43 51 60
94 415 244 43 52 61
94 415 245 42 51 60
94 414 246 44 52 61
94 414 247 45 54 63
94 415 246 43 52 62
94 415 247 44 53 63
93 408 248 46 55 65
93 408 249 47 56 66
93 409 248 47 56 66
93 409 249 48 57 67
93 408 250 48 57 67
93 408 251 47 57 67
93 409 250 48 58 68
93 409 251 47 56 66
93 410 248 47 57 67
93 410 249 49 58 68
93 411 248 45 55 66
93 411 249 48 58 68
93 410 250 48 58 68
93 410 251 48 57 67
93 411 250 49 58 68
94 409 251 46 55 65
94 410 251 47 56 65
94 411 250 48 58 68
94 411 251 46 55 65
93 408 252 46 55 65
93 408 253 45 54 64
93 409 252 46 55 65
94 408 253 46 55 64
94 409 252 45 55 64
94 409 253 46 55 64
94 408 254 46 55 65
94 408 255 47 56 65
94 409 254 47 55 64
94 409 255 46 55 64
94 410 252 47 56 65
94 410 253 46 55 64
94 411 252 47 55 64
94 411 253 46 55 65
94 410 254 47 55 65
94 410 255 46 54 64
94 411 254 47 56 65
94 411 255 47 55 64
93 412 248 44 55 66
93 412 249 46 57 68
94 412 248 45 56 66
94 412 249 47 57 68
94 413 248 46 56 67
94 413 249 48 58 68
94 412 250 48 57 68
94 412 251 47 55 64
94 413 250 47 57 67
94 413 251 46 55 64
94 414 248 47 57 67
94 414 249 47 57 68
94 415 248 46 56 67
94 415 249 47 57 67
94 414 250 47 57 67
94 414 251 46 55 64
94 415 250 47 56 66
94 415 251 46 54 64
94 412 252 46 54 64
94 412 253 46 54 64
94 413 252 45 54 63
94 413 253 46 54 64
94 412 254 47 55 65
94 412 255 46 54 64
94 413 254 45 53 63
94 413 255 45 54 63
95 412 255 45 53 63
95 413 254 45 53 62
95 413 255 45 53 62
94 414 252 46 54 64
94 414 253 46 54 64
94 415 252 46 54 64
94 415 253 46 54 64
95 414 253 46 54 63
95 415 252 45 54 63
95 415 253 47 55 64
95 414 254 46 54 63
95 414 255 45 54 63
95 415 254 47 55 64
95 415 255 45 54 64
95 416 232 44 53 63
95 416 233 44 54 63
95 417 233 44 54 63
95 416 234 44 53 63
95 416 235 42 51 61
95 417 234 43 53 63
95 417 235 42 52 62
95 418 233 44 53 63
95 419 233 42 52 62
95 418 234 43 52 62
95 418 235 43 53 63
95 419 234 42 52 62
95 419 235 44 53 63
94 416 236 42 51 61
94 416 237 44 53 62
94 417 237 45 53 62
95 416 236 41 51 61
95 416 237 43 52 62
95 417 236 42 52 61
95 417 237 43 52 61
94 416 238 45 53 62
94 416 239 46 54 62
94 417 238 46 54 63
94 417 239 46 54 63
95 417 238 46 53 62
95 418 236 43 53 63
95 418 237 44 53 62
95 419 236 44 53 63
95 419 237 44 53 63
95 418 238 45 53 62
95 418 239 45 53 62
95 419 238 46 54 64
95 419 239 45 54 63
95 420 234 43 53 63
95 420 235 43 52 62
95 421 235 43 53 63
95 420 236 42 53 63
95 420 237 42 52 63
95 421 236 44 53 63
95 421 237 42 53 63
95 420 238 45 54 64
95 420 239 45 54 64
95 421 238 44 53 63
95 421 239 44 54 64
94 416 240 46 54 63
94 416 241 47 54 63
94 417 240 46 54 62
94 417 241 46 54 63
94 416 242 46 54 63
94 416 243 45 53 62
94 417 242 46 54 63
94 417 243 45 54 63
94 418 241 47 54 64
95 418 240 45 53 62
95 418 241 46 54 64
95 419 240 45 53 62
95 419 241 45 53 62
94 418 242 46 54 64
94 418 243 45 54 63
95 418 242 46 54 64
95 418 243 45 54 64
95 419 242 45 54 63
95 419 243 44 53 63
94 416 244 43 52 61
94 416 245 43 52 61
94 417 244 44 53 62
94 417 245 45 53 63
94 416 246 44 53 62
94 416 247 46 55 65
94 417 246 45 54 64
94 417 247 47 56 66
94 418 244 44 53 63
94 418 245 44 54 63
95 418 244 44 53 63
95 418 245 44 54 64
95 419 244 43 53 63
95 419 245 43 53 64
94 418 246 46 55 65
94 418 247 48 57 67
95 418 246 45 55 65
95 418 247 47 57 67
95 419 246 45 55 65
95 419 247 46 56 67
95 420 240 45 54 64
95 420 241 46 55 64
95 421 240 45 54 64
95 421 241 46 55 65
95 420 242 46 54 64
95 420 243 44 54 64
95 421 242 46 55 65
95 421 243 46 55 66
95 422 242 47 56 66
95 422 243 46 56 66
95 420 244 44 54 64
95 420 245 44 55 65
95 421 244 45 55 66
95 421 245 47 57 67
95 420 246 46 56 66
95 420 247 47 57 67
95 421 246 48 57 68
95 421 247 48 58 68
95 422 244 46 56 66
95 422 245 47 57 67
95 422 246 50 59 69
95 422 247 48 58 68
94 416 248 48 58 68
94 416 249 48 57 67
94 417 248 48 58 68
94 417 249 47 57 67
94 416 250 46 55 65
94 416 251 45 54 63
94 417 250 46 55 65
95 416 251 44 53 63
95 417 250 46 55 65
95 417 251 44 53 63
94 418 248 47 57 67
95 418 248 46 56 67
95 418 249 45 55 65
95 419 248 45 56 66
95 419 249 44 53 64
95 418 250 43 53 63
95 418 251 44 53 62
95 419 250 43 53 62
95 419 251 43 52 62
95 416 252 45 54 63
95 416 253 46 55 64
95 417 252 46 55 64
95 417 253 47 55 64
95 416 254 47 55 65
95 416 255 45 54 64
95 417 254 45 54 65
95 417 255 44 54 64
95 418 252 45 54 64
95 418 253 45 54 63
95 419 252 45 53 63
95 419 253 44 53 63
95 418 254 43 53 63
95 418 255 42 52 63
95 419 254 44 53 63
95 419 255 45 54 63
95 420 248 47 56 66
95 420 249 45 54 63
95 421 248 47 56 66
95 421 249 46 54 63
95 420 250 44 53 62
95 420 251 43 52 62
95 421 250 45 54 63
95 421 251 44 53 62
95 422 248 47 55 65
95 422 249 45 54 63
95 420 252 44 53 63
95 420 253 45 54 63
95 420 254 44 53 63
99 390 223 47 57 67
99 391 223 46 56 66
103 387 219 44 53 63
100 384 223 47 58 68
100 385 223 47 58 69
101 384 222 46 56 66
101 384 223 46 57 67
101 385 222 46 56 66
100 386 223 48 59 69
100 387 223 49 59 69
101 386 222 47 57 68
101 387 222 47 58 68
102 384 221 46 55 64
102 385 221 46 55 65
103 384 220 46 54 62
103 384 221 47 55 63
103 385 220 45 54 63
103 385 221 46 55 64
102 384 222 46 55 65
102 385 222 45 55 65
102 386 221 46 56 65
102 387 221 46 56 66
103 386 220 45 54 63
103 387 220 45 54 64
102 386 222 47 57 67
102 387 222 46 56 67
103 388 219 45 54 64
103 389 219 46 55 64
103 390 219 46 55 64
103 391 219 46 55 65
100 388 223 48 58 68
100 389 222 48 58 69
100 389 223 48 58 68
101 388 222 47 57 68
101 389 222 47 57 68
101 390 221 48 58 68
101 391 221 49 59 69
100 390 222 49 59 69
100 390 223 49 58 69
100 391 222 50 59 69
100 391 223 47 57 67
101 390 222 49 59 69
101 391 222 49 59 69
102 388 220 46 55 65
102 388 221 46 56 66
102 389 220 46 56 65
102 389 221 46 56 66
103 388 220 45 55 64
103 389 220 46 56 65
102 390 220 46 56 65
102 390 221 47 57 67
102 391 220 48 57 67
102 391 221 49 58 68
103 390 220 47 56 65
103 391 220 47 56 65
99 392 223 45 55 65
99 393 223 46 55 65
99 394 223 47 56 65
99 395 223 47 56 66
99 396 223 46 56 66
99 397 222 46 56 66
99 397 223 46 55 66
98 399 223 49 58 68
99 398 222 47 57 67
99 398 223 47 57 67
99 399 222 48 58 68
99 399 223 49 58 68
103 392 219 45 55 65
103 393 219 46 56 66
102 395 219 46 56 67
103 394 218 46 56 67
103 394 219 47 56 66
103 395 218 46 56 67
103 395 219 46 56 67
101 392 221 50 59 69
101 393 221 49 58 68
100 392 222 48 57 67
100 392 223 47 57 67
100 393 222 48 57 67
100 393 223 47 56 66
101 392 222 48 58 68
101 393 222 48 58 67
100 395 221 48 58 68
101 394 220 50 59 69
101 394 221 49 58 68
101 395 220 50 59 69
101 395 221 50 59 69
100 394 222 49 58 67
100 394 223 48 57 66
100 395 222 49 58 67
102 392 220 49 58 67
102 393 220 49 58 68
103 392 220 47 57 66
103 393 220 48 57 67
102 394 220 49 58 68
102 395 220 50 59 69
101 398 219 50 60 71
101 399 219 50 60 71
102 396 219 48 58 69
102 397 219 50 60 70
103 396 218 46 56 67
103 396 219 46 56 67
103 397 218 46 56 67
103 397 219 46 57 67
103 398 217 49 58 68
103 399 217 49 59 69
102 398 219 50 60 70
102 399 218 50 60 71
102 399 219 50 60 71
103 398 218 48 58 69
103 399 218 50 60 70
100 396 221 48 58 68
100 397 221 47 57 68
101 396 220 49 59 69
101 396 221 49 59 69
101 397 220 50 60 70
101 397 221 49 59 69
100 396 222 47 57 67
100 397 222 46 56 66
100 398 221 48 58 69
100 399 221 48 58 69
101 398 220 50 60 70
101 398 221 48 58 68
101 399 220 49 59 70
100 398 222 47 57 68
100 399 222 48 58 68
102 396 220 50 59 69
102 397 220 51 60 70
107 387 215 45 53 62
107 388 215 45 53 62
107 389 215 45 53 62
107 390 215 45 54 62
107 391 215 46 54 63
111 385 211 45 54 63
111 386 211 46 55 64
111 387 211 47 56 64
109 385 213 44 53 62
108 384 215 45 53 62
108 385 214 45 54 62
108 385 215 45 54 63
109 384 214 45 53 62
109 385 214 44 53 62
109 386 213 45 53 62
109 387 213 46 54 63
108 386 214 45 54 62
108 386 215 46 54 62
108 387 214 46 54 62
108 387 215 46 54 62
109 386 214 45 53 62
109 387 214 46 54 62
110 384 213 45 54 62
110 385 212 46 55 63
110 385 213 45 54 62
111 384 212 45 53 62
111 385 212 46 54 63
110 386 212 47 55 64
110 386 213 46 54 63
110 387 212 47 56 64
110 387 213 46 54 63
111 386 212 47 55 64
111 387 212 48 56 64
111 388 211 47 55 64
111 389 211 47 56 64
110 391 211 47 55 64
111 390 210 47 55 64
111 390 211 47 56 64
111 391 210 47 55 64
111 391 211 47 55 64
109 388 213 47 55 63
109 389 213 47 55 64
108 388 214 47 54 63
108 388 215 46 54 63
108 389 214 47 55 63
108 389 215 47 55 63
109 388 214 47 55 63
109 389 214 47 55 63
108 391 213 47 55 64
109 390 213 47 55 63
109 391 213 47 55 63
108 390 214 47 55 63
108 390 215 46 54 63
108 391 214 47 55 63
110 388 212 48 56 64
110 388 213 47 55 64
110 389 212 48 56 64
110 389 213 47 55 64
111 388 212 48 56 64
111 389 212 48 56 64
110 390 212 47 55 64
110 390 213 47 55 64
110 391 212 47 55 63
104 384 219 45 53 62
104 385 219 45 53 62
105 384 218 45 53 61
105 384 219 45 53 62
105 385 218 45 53 61
105 385 219 46 53 62
105 387 217 45 54 63
104 386 219 43 52 62
104 387 219 44 53 62
105 386 218 44 52 61
105 386 219 44 53 62
105 387 218 45 53 62
106 384 216 45 53 62
106 384 217 45 53 62
106 385 216 45 53 62
106 385 217 45 53 62
107 384 216 44 53 62
107 385 216 45 53 62
106 386 216 45 53 62
106 386 217 45 53 62
106 387 216 45 53 62
106 387 217 45 53 62
107 386 216 45 53 62
107 387 216 45 53 62
104 384 220 45 53 61
104 385 220 44 53 61
104 386 220 43 53 62
105 388 217 46 54 63
105 389 217 45 54 62
104 388 219 45 54 63
104 389 218 45 54 63
104 389 219 45 54 63
105 388 218 45 54 63
105 389 218 45 54 63
105 390 217 45 54 62
105 391 217 45 54 63
104 390 218 45 53 62
104 390 219 45 54 63
104 391 218 45 54 63
104 391 219 45 54 63
105 390 218 45 53 62
106 388 216 45 53 62
106 388 217 45 54 62
106 389 216 45 53 62
106 389 217 45 53 62
107 388 216 44 53 61
107 389 216 45 53 62
106 390 216 46 54 63
106 390 217 45 54 62
106 391 216 46 54 63
106 391 217 46 54 63
107 390 216 45 53 62
107 391 216 46 54 62
106 393 215 46 54 63
107 392 214 45 53 62
107 392 215 46 54 63
107 393 214 46 54 63
107 393 215 46 54 63
106 394 215 47 55 64
106 395 215 47 55 64
107 394 214 46 55 63
107 394 215 46 55 63
107 395 214 46 55 64
105 398 215 46 55 64
105 399 215 47 56 65
107 397 213 46 55 64
106 396 215 47 55 64
106 397 214 46 55 64
106 397 215 46 55 64
107 396 214 46 55 64
107 397 214 46 55 64
107 398 213 46 55 64
107 399 213 47 55 65
106 398 214 46 55 65
106 398 215 46 55 64
106 399 214 46 55 64
106 399 215 47 55 64
107 398 214 46 55 64
107 399 214 46 55 64
110 392 211 47 55 64
110 393 211 46 54 63
111 392 210 46 54 63
111 392 211 47 55 64
111 393 210 46 55 63
111 393 211 46 55 63
110 394 211 46 54 63
110 395 211 46 54 63
111 394 210 47 55 64
111 395 210 47 55 64
111 395 211 46 55 63
108 392 213 47 55 64
108 393 213 47 55 63
109 392 212 46 54 63
109 392 213 47 55 64
109 393 212 46 54 63
109 393 213 47 55 63
108 392 214 46 54 63
108 393 214 46 54 63
108 394 213 46 54 63
108 395 213 45 54 63
109 394 212 46 54 63
109 394 213 47 55 64
109 395 212 46 55 64
109 395 213 46 55 64
108 394 214 46 54 63
110 392 212 46 54 63
110 393 212 46 54 63
110 394 212 46 54 63
109 396 211 46 55 64
109 397 211 46 55 64
109 398 211 45 55 64
109 399 211 47 56 65
111 397 209 47 55 64
110 396 210 46 55 64
110 396 211 46 54 63
110 397 210 46 55 64
110 397 211 46 55 64
111 396 210 46 55 64
111 397 210 47 55 64
111 398 209 47 55 64
111 399 209 47 55 64
110 398 210 45 54 64
110 398 211 45 54 64
110 399 210 45 54 63
110 399 211 45 54 64
111 398 210 46 55 64
111 399 210 46 55 64
108 396 213 46 55 64
108 397 213 46 55 64
109 396 212 47 56 65
109 397 212 46 55 65
108 396 214 46 55 64
108 398 212 46 55 65
108 398 213 46 55 64
108 399 212 47 56 65
108 399 213 47 56 65
109 398 212 46 55 65
109 399 212 47 56 65
104 393 217 45 54 64
105 392 216 46 54 63
105 392 217 45 54 63
105 393 216 45 54 63
105 393 217 45 54 63
104 392 218 45 54 64
104 393 218 46 55 65
104 394 217 46 55 65
104 395 217 45 55 65
105 394 216 45 54 63
105 394 217 44 53 63
105 395 216 45 54 63
104 394 218 46 56 66
104 395 218 46 56 66
106 392 216 46 54 63
106 393 216 46 54 63
106 394 216 46 55 64
106 395 216 46 55 64
104 396 217 46 56 65
104 397 216 48 57 66
104 397 217 47 56 66
105 396 216 44 54 63
105 397 216 45 54 64
104 396 218 46 56 66
104 398 216 48 57 67
104 398 217 48 57 67
104 399 216 48 57 67
104 399 217 49 58 69
105 398 216 47 56 65
105 399 216 48 57 66
106 396 216 46 55 64
111 408 207 46 55 64
111 409 207 46 55 64
111 410 207 47 56 65
111 411 207 48 56 65
111 412 207 47 56 65
111 413 206 48 56 65
111 413 207 48 56 65
110 414 207 47 56 65
110 415 207 46 55 65
111 414 206 48 56 65
111 414 207 47 56 65
111 415 206 47 55 64
111 415 207 47 55 64
98 400 223 48 57 67
98 401 223 46 56 66
99 400 222 47 57 68
99 400 223 48 57 67
99 401 222 46 56 66
99 401 223 46 55 65
98 402 223 48 57 67
98 403 223 48 57 66
99 402 222 45 56 66
99 402 223 47 56 66
99 403 222 47 57 67
99 403 223 47 57 66
98 404 223 48 57 67
98 405 223 47 57 67
99 404 222 47 57 67
99 404 223 47 57 67
99 405 222 45 56 66
99 405 223 47 56 67
99 406 222 47 57 68
99 406 223 47 57 67
99 407 222 47 58 68
99 407 223 48 57 68
101 400 219 51 61 72
101 401 219 51 61 72
101 402 219 50 60 71
101 403 219 49 60 71
103 400 217 50 59 70
103 401 217 50 60 70
102 400 218 50 61 71
102 400 219 51 61 72
102 401 218 50 60 71
102 401 219 50 61 71
103 400 218 50 60 71
103 401 218 50 60 71
103 402 217 49 59 69
103 403 217 49 59 70
102 402 218 49 60 70
102 402 219 50 61 71
102 403 218 50 60 71
102 403 219 49 60 71
100 400 220 49 59 70
100 400 221 47 58 68
100 401 220 49 59 70
100 401 221 47 57 68
101 400 220 49 60 70
101 401 220 49 60 70
100 402 220 48 58 69
100 402 221 47 57 67
100 403 220 47 58 68
100 403 221 46 57 67
101 402 220 49 59 70
101 403 220 48 58 69
101 404 219 49 60 71
101 405 219 49 59 70
101 406 219 49 59 70
101 407 219 48 58 69
103 404 216 49 59 69
103 404 217 50 60 71
103 405 216 51 61 71
103 405 217 51 61 72
102 404 218 50 61 72
102 404 219 50 61 72
102 405 218 50 61 72
102 405 219 50 61 72
102 406 217 51 61 73
102 407 217 52 62 73
103 406 216 51 61 72
103 406 217 51 62 73
103 407 216 51 62 72
103 407 217 52 62 73
102 406 218 50 61 72
102 407 218 50 60 72
100 404 220 46 57 68
100 404 221 45 56 66
100 405 220 46 57 68
100 405 221 45 56 67
101 404 220 47 58 69
101 405 220 47 58 68
100 406 220 47 58 69
100 406 221 45 56 67
100 407 220 46 57 68
100 407 221 46 56 67
101 406 220 47 58 69
101 407 220 47 57 68
100 406 222 47 57 68
100 407 222 47 57 68
103 409 215 49 60 70
103 410 215 48 59 70
103 411 215 48 59 70
103 412 215 50 61 72
103 413 215 52 62 73
103 414 215 51 61 72
103 415 215 51 61 72
99 408 222 46 57 68
99 408 223 47 56 66
99 409 223 47 56 67
99 410 223 47 57 67
99 411 223 47 57 67
99 412 223 47 57 67
99 413 223 47 57 67
99 414 223 47 57 68
99 415 223 46 56 67
101 408 219 48 58 69
101 409 218 46 57 69
101 409 219 46 57 68
101 410 218 48 59 70
101 410 219 47 58 68
101 411 218 48 59 69
101 411 219 48 58 68
102 408 217 49 60 71
102 409 217 49 59 71
103 408 216 50 61 72
103 408 217 50 61 72
103 409 216 50 60 71
102 408 218 49 59 70
102 409 218 47 58 69
102 410 217 50 60 71
102 411 217 49 60 70
103 410 216 50 61 72
103 411 216 50 61 72
102 410 218 49 60 71
102 411 218 49 59 70
100 408 220 47 57 68
100 408 221 46 56 66
100 409 220 46 57 68
100 409 221 44 55 66
101 408 220 47 57 67
100 408 222 46 57 68
100 409 222 45 57 68
100 410 220 46 57 68
100 410 221 45 56 67
100 411 220 47 57 68
100 411 221 47 58 68
100 410 222 45 56 68
100 411 222 47 57 68
100 411 223 48 58 68
101 412 218 48 59 69
101 412 219 48 58 68
101 413 218 49 59 70
101 413 219 48 58 68
101 414 218 50 60 71
101 414 219 49 58 69
101 415 218 48 59 69
101 415 219 47 57 67
102 412 217 50 60 71
102 413 216 51 61 72
102 413 217 50 60 71
103 412 216 50 60 71
103 413 216 51 62 72
102 412 218 49 59 70
102 413 218 50 60 70
102 414 216 50 60 71
102 414 217 50 60 71
102 415 216 50 60 71
102 415 217 49 60 70
103 414 216 50 61 71
103 415 216 50 60 71
102 414 218 50 60 71
102 415 218 49 59 70
100 412 220 47 57 68
100 412 221 48 58 68
100 413 220 48 57 67
100 413 221 48 58 68
100 412 222 48 58 69
100 412 223 49 59 69
100 413 222 49 58 69
100 413 223 49 59 70
100 414 220 47 57 67
100 414 221 48 58 68
100 415 220 47 57 67
100 415 221 49 58 69
101 414 220 48 57 68
101 415 220 48 58 68
100 414 222 48 58 68
100 414 223 48 58 69
100 415 222 48 58 68
100 415 223 47 57 68
104 401 215 47 57 66
105 400 215 47 56 65
105 401 215 47 56 65
104 402 215 47 57 66
104 403 215 47 57 67
105 402 215 47 56 66
105 403 214 46 55 65
105 403 215 47 56 66
106 401 213 46 55 64
107 400 213 47 56 65
107 401 212 46 55 64
107 401 213 46 55 64
106 400 214 46 55 64
106 400 215 47 55 65
106 401 214 45 54 64
106 402 213 46 55 64
