ply
format ascii 1.0
element vertex 2027
property float x
property float y
property float z
property uchar red
property uchar green
property uchar blue
end_header
124 604 431 187 143 131
124 605 430 191 146 134
124 605 431 189 144 133
125 605 430 193 147 136
125 605 431 193 146 136
126 605 428 193 145 135
126 605 429 194 145 135
127 605 428 196 146 137
127 605 429 196 147 137
126 605 430 195 146 136
126 605 431 194 146 136
127 605 430 196 147 136
127 605 431 195 146 136
127 606 431 195 146 136
112 595 432 100 94 91
112 595 433 100 93 90
113 595 432 102 94 90
114 595 432 104 94 87
112 596 433 105 95 89
113 596 432 103 96 91
113 596 433 108 97 90
113 597 433 127 108 96
112 596 434 109 98 91
112 597 434 124 107 95
112 597 435 117 102 92
113 597 434 143 120 109
113 598 433 164 134 125
113 599 432 175 132 125
113 599 433 172 133 126
112 598 434 148 124 114
112 598 435 145 119 108
112 599 434 169 129 120
112 599 435 163 124 116
113 598 434 158 130 120
113 599 434 170 132 123
114 596 432 113 99 91
114 596 433 114 100 91
114 597 432 143 119 112
114 597 433 139 116 107
115 596 432 121 105 99
115 597 432 149 123 118
114 598 432 169 134 127
114 598 433 166 134 125
114 599 432 173 134 128
114 599 433 174 135 128
115 598 432 170 134 128
112 598 436 144 113 104
112 599 436 158 117 111
116 597 432 139 119 116
116 598 432 145 120 117
117 598 432 144 122 119
118 597 432 148 126 121
119 596 432 172 144 141
119 597 432 162 134 130
118 598 432 138 116 110
118 599 432 146 115 109
119 598 432 139 116 107
119 598 433 134 114 104
119 599 432 140 113 105
119 599 433 133 111 100
112 600 432 187 142 133
112 600 433 183 139 130
113 600 432 179 136 128
113 600 433 176 133 125
112 600 434 176 133 125
112 600 435 172 129 121
119 600 432 138 109 99
119 600 433 130 107 95
122 595 432 147 126 119
123 595 432 137 120 112
120 596 432 170 142 138
120 597 432 166 136 133
120 597 433 158 129 123
121 596 432 165 137 133
121 597 433 160 131 126
121 597 434 150 124 117
120 598 433 150 125 116
120 598 434 144 120 109
120 599 434 132 112 100
120 599 435 130 111 99
121 598 434 146 123 114
121 598 435 141 119 108
122 596 432 149 125 120
122 596 433 145 122 117
122 597 433 151 126 121
123 596 432 131 112 104
123 596 433 131 112 104
122 597 434 137 116 108
122 597 435 126 107 97
123 596 434 129 111 104
123 597 434 122 106 97
123 597 435 118 102 92
122 598 435 129 109 99
120 599 436 125 107 96
121 598 436 133 112 100
121 599 436 130 110 98
121 599 437 129 109 96
121 599 438 131 109 96
121 599 439 133 111 99
123 597 436 114 100 89
122 598 436 126 108 97
122 598 437 124 106 94
122 599 437 128 110 98
123 598 436 115 100 90
123 598 437 116 100 89
122 599 438 127 109 97
122 599 439 127 109 97
123 598 438 117 102 90
123 598 439 116 101 90
123 599 439 118 103 91
124 595 432 125 111 102
125 595 432 119 107 99
126 595 432 111 101 94
126 595 433 107 98 92
127 595 432 107 98 93
127 595 433 101 93 88
124 596 433 121 106 98
125 596 433 112 100 94
124 596 434 116 103 95
124 597 434 112 99 90
124 597 435 112 99 90
125 596 434 106 96 89
125 597 434 106 96 88
125 597 435 106 96 90
126 596 433 104 95 90
127 596 433 101 93 89
126 596 434 103 95 90
126 596 435 102 95 91
126 597 435 104 96 91
127 596 434 102 94 91
127 596 435 100 95 92
124 597 436 110 98 88
125 597 436 107 97 91
125 597 437 107 98 92
124 598 437 111 98 89
125 598 437 108 98 90
124 598 438 112 99 89
124 598 439 113 100 91
125 598 438 108 98 91
125 598 439 109 99 92
126 597 436 104 97 93
126 597 437 104 97 93
127 596 436 101 96 94
127 597 436 102 96 94
127 597 437 103 97 94
126 597 438 103 96 91
127 597 438 103 96 93
127 597 439 103 96 93
126 598 438 105 97 92
126 598 439 105 97 93
127 598 439 104 96 92
122 599 440 128 109 97
122 599 441 128 110 98
123 598 440 120 106 96
123 599 440 123 107 96
123 599 441 125 110 99
122 599 442 129 112 100
123 599 442 125 111 100
123 599 443 123 108 98
123 599 444 120 105 95
124 598 440 117 104 95
124 598 441 120 107 98
124 599 441 120 107 99
125 598 440 112 102 95
125 598 441 113 102 95
124 599 442 120 107 98
124 599 443 117 105 96
125 598 442 110 101 96
125 599 442 113 102 96
125 599 443 110 101 95
126 598 440 107 99 94
126 598 441 108 100 95
127 598 440 104 97 93
127 598 441 105 98 94
126 598 442 108 100 96
126 598 443 107 99 95
126 599 443 106 99 95
127 598 442 106 99 95
127 598 443 105 98 95
124 599 444 114 102 93
124 599 445 105 94 86
125 599 444 107 98 92
125 599 445 101 92 86
124 599 446 102 91 84
125 599 446 100 91 86
125 599 447 100 92 87
126 599 444 102 94 91
126 599 445 96 89 85
127 598 444 102 95 91
127 599 444 99 92 88
127 599 445 94 87 81
126 599 446 96 89 85
126 599 447 97 90 87
127 599 446 95 87 82
127 599 447 95 87 82
120 600 432 136 109 97
120 600 433 130 106 93
120 601 432 149 118 106
120 601 433 138 111 99
120 600 434 122 103 89
120 600 435 119 103 91
120 601 434 129 106 92
120 601 435 123 102 87
120 602 432 157 122 110
120 602 433 149 117 104
121 602 432 161 124 112
121 602 433 157 121 109
121 603 432 168 128 117
121 603 433 164 125 115
120 602 434 140 111 98
120 602 435 138 109 94
121 602 434 153 118 106
121 603 434 161 123 112
121 603 435 156 120 107
122 603 432 173 131 121
122 603 433 168 127 117
120 600 436 119 103 92
120 600 437 123 107 96
120 601 436 122 102 87
120 601 437 123 105 90
121 600 437 125 107 95
120 601 438 127 108 93
120 601 439 129 111 98
121 600 438 128 107 94
121 600 439 130 107 94
121 601 438 126 108 94
121 601 439 129 109 96
120 602 436 135 107 91
120 602 437 134 108 92
121 603 436 151 117 102
121 603 437 146 113 99
120 602 438 135 110 94
120 602 439 133 110 94
121 602 439 137 112 96
121 603 438 147 114 99
121 603 439 145 115 99
121 604 435 164 126 114
122 604 432 176 134 123
122 604 433 171 129 119
123 604 432 182 138 127
123 604 433 178 136 125
123 605 432 182 139 128
123 605 433 181 139 128
122 604 434 171 130 119
122 604 435 168 129 118
122 605 435 174 134 123
123 605 434 178 136 127
123 605 435 177 136 127
121 604 436 163 126 113
121 604 437 162 125 112
121 604 438 160 124 110
121 604 439 161 125 111
121 605 438 170 132 119
121 605 439 169 131 118
122 604 436 167 130 118
122 605 436 173 135 124
122 605 437 171 133 121
123 605 436 176 136 126
123 605 437 175 136 125
122 605 438 173 135 124
122 605 439 173 133 122
123 605 438 175 136 125
123 606 436 175 135 125
123 606 437 176 135 125
123 606 438 176 135 125
123 606 439 178 135 125
124 605 432 187 143 132
124 605 433 185 142 131
125 605 432 190 145 134
125 605 433 187 143 132
124 605 434 181 139 130
124 605 435 178 136 128
125 606 433 187 141 131
124 606 434 179 137 129
124 606 435 177 134 126
125 606 434 183 137 129
125 606 435 179 135 127
126 605 432 192 145 135
126 606 432 192 143 134
126 606 433 189 141 132
127 606 432 194 144 135
127 606 433 192 142 133
126 606 434 186 138 130
126 606 435 184 137 128
127 606 434 190 139 131
127 606 435 188 139 130
124 606 436 176 134 125
124 606 437 178 136 128
125 606 436 179 134 127
125 606 437 182 138 131
125 607 437 186 140 133
124 606 438 181 137 129
124 606 439 181 136 128
124 607 439 184 138 129
125 606 438 183 138 130
125 607 438 187 140 132
125 607 439 186 137 129
126 606 436 184 137 129
126 607 436 186 140 132
126 607 437 189 142 135
127 607 436 190 142 134
127 607 437 192 144 136
126 607 438 191 142 134
126 607 439 188 137 130
127 607 438 193 144 135
127 607 439 190 139 131
121 600 440 131 107 94
121 600 441 132 107 94
121 601 440 131 109 95
121 601 441 133 109 96
121 600 442 129 107 94
121 601 442 131 109 95
121 601 443 129 108 94
121 602 440 136 113 99
121 602 441 136 111 97
121 603 440 146 117 102
121 603 441 147 118 103
121 602 442 134 111 95
121 602 443 132 110 94
121 603 442 144 114 99
121 603 443 140 111 95
122 600 441 130 108 96
122 600 442 128 109 97
122 600 443 126 109 97
123 600 443 123 109 98
121 601 444 125 105 90
121 601 445 121 102 88
121 602 444 129 107 92
121 602 445 124 103 87
121 603 444 138 109 92
121 603 445 137 109 92
121 602 446 122 101 82
121 603 446 134 108 88
122 600 444 123 105 93
122 600 445 117 101 89
122 601 445 117 100 87
123 600 444 119 104 93
123 600 445 112 99 89
122 600 446 111 96 83
122 601 446 116 99 85
122 601 447 118 101 87
123 600 446 107 95 85
123 600 447 108 96 87
122 602 446 122 102 83
122 602 447 126 105 88
122 603 446 143 114 96
122 603 447 144 116 99
121 604 440 161 125 111
121 604 441 160 124 109
121 605 440 169 130 117
121 605 441 169 129 116
121 604 442 159 121 107
121 604 443 157 119 105
121 605 442 170 129 115
122 605 440 173 133 121
122 605 441 173 132 120
122 604 443 163 124 109
122 605 442 173 130 119
122 605 443 175 130 120
122 606 440 175 134 124
122 606 441 175 133 123
123 606 440 179 134 126
123 606 441 178 132 123
122 606 442 174 128 119
123 606 442 177 128 121
123 606 443 178 126 122
121 604 444 154 118 104
121 604 445 154 120 105
122 604 444 165 126 113
122 604 445 164 127 114
122 605 444 178 133 125
122 605 445 183 140 131
122 604 446 168 132 119
122 604 447 167 132 118
122 605 446 186 144 135
122 605 447 188 146 136
123 606 444 180 128 123
123 606 445 185 135 127
123 607 444 186 134 130
123 606 446 189 142 133
123 606 447 193 147 138
124 600 446 103 93 85
124 600 447 104 94 88
124 607 440 183 135 128
124 607 441 182 133 126
125 607 440 184 133 127
125 607 441 186 134 130
124 607 442 186 136 131
124 607 443 189 138 135
125 607 442 191 140 136
125 607 443 195 144 140
126 607 440 185 132 127
126 607 441 186 133 129
127 607 440 187 134 128
124 607 444 190 140 135
124 607 445 191 141 135
125 607 444 198 147 142
125 607 445 199 147 141
124 606 447 196 148 140
124 607 446 194 145 137
124 607 447 198 150 141
125 607 446 201 149 142
125 607 447 203 151 143
126 607 446 205 152 144
126 607 447 208 155 145
127 607 447 210 158 149
119 608 384 188 140 128
120 608 384 191 143 132
121 608 384 191 142 131
122 608 384 192 142 130
123 608 384 194 142 130
123 608 385 194 143 131
124 608 384 195 142 130
124 608 385 194 143 131
125 608 384 193 141 129
125 608 385 194 141 130
126 608 384 190 138 127
126 608 385 192 139 127
127 608 384 189 138 126
127 608 385 190 137 126
127 609 384 189 138 126
126 608 386 192 139 127
127 608 386 191 139 126
126 608 441 188 136 131
127 608 440 189 136 129
127 608 441 189 135 130
126 608 442 192 140 135
126 608 443 196 145 138
127 608 442 190 137 132
127 608 443 192 139 133
126 608 444 200 149 142
126 608 445 203 151 143
127 608 444 198 145 138
127 608 445 203 150 143
126 608 446 206 152 144
127 608 446 206 153 145
99 599 449 109 95 85
99 599 450 108 95 85
99 599 451 108 95 85
99 599 452 108 95 85
100 598 449 109 95 85
100 599 448 109 96 86
100 599 449 109 95 85
101 598 448 109 96 86
101 598 449 109 95 85
101 599 448 110 96 86
100 598 450 108 95 85
100 598 451 108 95 85
100 599 450 108 95 85
100 599 451 108 95 85
101 598 450 108 95 85
101 598 451 108 95 85
102 598 448 110 96 86
102 598 449 109 95 86
103 598 448 111 97 87
103 598 449 110 96 86
102 598 450 108 95 85
102 598 451 108 95 85
103 598 450 109 95 86
103 598 451 108 95 85
103 599 450 109 96 86
103 599 451 109 95 86
100 598 452 108 95 85
100 599 452 108 95 85
100 599 453 108 95 85
101 598 452 108 95 85
101 599 452 108 95 85
101 599 453 108 95 85
102 598 452 108 95 85
102 599 452 108 95 85
102 599 453 108 95 85
103 599 452 108 95 85
99 600 449 109 95 85
99 601 449 109 95 86
98 600 451 108 95 85
99 600 450 108 95 85
99 600 451 108 95 85
99 601 450 108 95 85
99 601 451 108 95 85
99 600 452 108 95 85
99 601 452 108 95 85
100 600 448 110 96 87
100 600 449 109 96 86
100 601 448 110 96 86
100 601 449 110 96 86
101 601 448 111 97 87
101 601 449 111 96 87
100 601 450 108 95 85
100 601 451 108 95 85
100 602 449 109 96 86
101 602 448 111 97 87
101 602 449 110 96 87
100 602 450 109 95 86
100 602 451 108 95 85
101 602 450 109 96 86
101 602 451 109 95 85
102 601 448 113 98 88
103 601 448 114 98 89
103 601 449 112 97 88
103 600 451 109 95 86
103 601 450 110 96 86
103 601 451 109 96 86
102 602 448 112 98 88
102 602 449 111 97 87
103 602 448 113 98 88
103 602 449 112 97 87
102 602 450 110 96 86
102 602 451 109 95 86
103 602 450 110 96 87
100 600 453 108 95 85
100 601 452 108 95 85
100 601 453 108 95 85
101 600 453 108 95 85
101 601 452 108 95 85
101 601 453 108 95 85
101 600 454 108 95 85
100 602 452 108 95 85
101 602 452 108 95 85
102 600 453 108 95 85
102 601 452 108 95 85
102 601 453 108 95 85
103 600 452 108 95 85
103 601 452 108 95 85
104 598 448 112 97 87
104 599 448 112 98 88
104 599 449 111 97 87
105 599 448 114 98 89
104 599 450 110 96 86
104 599 451 109 96 86
104 600 448 114 98 89
104 600 449 112 97 88
104 601 448 114 99 89
104 601 449 112 97 87
105 600 448 114 99 89
104 600 450 110 96 87
104 600 451 109 96 86
104 601 450 110 96 87
125 599 448 102 94 89
126 599 448 99 92 87
126 599 449 100 93 88
127 599 448 98 89 83
127 599 449 100 90 85
126 599 450 102 94 90
127 599 454 102 92 85
127 599 455 102 91 84
126 599 457 103 93 85
127 599 456 103 91 83
127 599 457 105 93 86
126 599 458 106 95 88
126 599 459 113 99 91
127 599 458 116 101 94
127 599 459 119 102 94
126 599 460 124 106 97
126 599 461 123 105 97
127 599 460 128 108 100
127 599 461 128 109 100
126 599 462 132 111 102
126 599 463 123 106 97
127 599 462 144 119 110
122 601 448 122 105 92
122 601 449 124 107 92
123 600 448 110 98 90
123 600 449 113 100 90
123 601 448 116 102 91
123 601 449 117 102 91
122 601 450 126 108 93
123 601 450 119 104 93
123 601 451 125 108 95
122 602 448 129 109 93
122 602 449 131 112 95
122 603 448 149 122 106
122 603 449 152 125 109
122 602 450 135 115 98
122 602 451 137 117 101
122 603 450 155 127 111
122 603 451 159 130 115
123 601 452 128 111 97
123 601 453 129 110 96
123 601 454 125 106 93
123 601 455 121 103 90
122 602 452 141 119 103
122 602 453 142 120 103
122 603 452 158 131 115
122 603 453 161 134 118
122 602 454 141 118 101
122 602 455 141 118 103
122 603 454 161 133 120
122 603 455 161 134 121
123 602 454 131 110 94
123 602 455 131 109 94
122 604 448 171 136 123
122 604 449 175 139 126
122 605 448 191 149 138
122 605 449 190 150 138
123 605 449 198 155 143
122 604 450 175 139 126
122 604 451 178 142 129
122 605 450 191 149 138
123 605 450 197 154 143
123 605 451 196 154 142
123 606 448 197 153 143
123 606 449 200 156 144
123 606 450 201 157 145
122 604 452 179 143 131
122 604 453 178 143 132
123 604 452 190 151 140
123 604 453 188 149 139
123 605 452 197 156 143
123 605 453 198 156 144
122 604 455 174 141 131
123 604 454 179 144 134
123 604 455 182 146 137
123 605 454 194 152 143
123 605 455 193 152 143
124 600 448 106 96 90
124 600 449 109 98 91
125 600 448 104 96 91
125 600 449 105 97 93
124 600 450 111 100 93
124 600 451 114 102 94
125 600 450 106 98 93
125 600 451 107 98 92
126 600 450 102 95 90
126 600 451 103 95 90
127 600 450 100 92 87
127 600 451 102 93 88
124 600 452 118 105 96
124 600 453 118 105 96
125 600 452 108 99 92
125 600 453 109 99 92
124 600 454 115 102 92
124 600 455 113 98 88
124 601 454 117 103 92
124 601 455 116 100 88
125 600 454 109 98 90
125 600 455 108 96 86
126 600 452 104 95 90
126 600 453 105 96 90
127 600 452 102 93 88
127 600 453 102 93 87
126 600 454 105 95 89
126 600 455 104 93 86
127 600 454 102 92 86
124 606 448 200 154 143
124 606 449 204 158 147
124 607 448 200 153 143
125 607 448 206 155 146
125 607 449 209 160 149
124 606 450 206 160 148
124 606 451 206 161 150
125 606 450 213 164 152
125 606 451 213 165 154
125 607 450 214 164 153
126 607 448 212 162 151
126 607 449 216 166 154
127 607 448 216 166 154
127 607 449 221 170 157
126 606 451 220 170 159
126 607 450 219 169 156
127 606 451 225 174 161
127 607 450 223 172 159
124 605 452 202 159 147
124 605 453 202 159 147
124 605 454 200 156 146
124 605 455 197 154 144
125 605 454 206 160 149
125 605 455 205 157 147
124 606 452 206 161 150
125 606 452 212 164 154
125 606 453 210 162 152
125 606 454 210 161 151
126 605 455 210 159 148
127 605 455 214 163 152
126 606 452 221 170 160
126 606 453 219 168 158
127 606 452 224 173 162
127 606 453 223 172 160
126 606 454 217 166 155
126 606 455 213 163 151
127 606 454 220 169 157
127 606 455 217 167 155
123 601 456 119 102 88
123 601 457 123 104 90
123 601 458 124 105 91
123 601 459 123 104 90
122 602 456 143 120 106
122 602 457 146 121 108
122 603 456 162 135 124
122 603 457 161 133 122
123 602 456 133 110 97
123 602 457 132 110 97
122 602 458 141 116 102
122 602 459 143 117 104
122 603 458 161 131 121
122 603 459 159 130 120
123 602 458 133 109 95
123 602 459 132 108 93
123 603 458 170 136 128
123 603 459 165 131 122
123 600 461 125 105 92
123 601 460 127 106 91
123 601 461 137 113 99
123 600 462 134 112 99
123 600 463 145 121 109
123 601 462 144 117 105
123 601 463 157 126 117
122 602 460 148 120 108
122 602 461 142 114 103
123 602 460 143 116 104
123 602 461 157 125 115
123 603 460 165 129 120
123 603 461 173 133 125
123 602 462 165 130 121
123 602 463 169 134 126
123 603 462 180 138 131
123 603 463 184 143 138
123 604 456 180 144 136
123 604 457 179 141 134
123 604 458 178 139 132
123 604 459 178 137 130
123 604 460 178 135 128
123 604 461 186 140 134
123 604 462 191 146 141
123 604 463 196 150 145
124 600 456 112 98 86
124 600 457 111 97 86
124 601 456 116 100 88
124 601 457 115 100 87
125 600 456 109 95 86
125 600 457 109 95 86
124 600 458 111 97 87
124 600 459 114 99 88
124 601 458 116 100 88
124 601 459 117 100 88
125 600 458 107 95 86
125 600 459 116 99 90
126 600 456 112 97 89
126 600 457 115 98 90
126 600 458 111 97 89
126 600 459 110 97 90
124 600 460 117 101 88
124 600 461 123 105 92
124 601 460 121 103 90
125 600 460 114 99 90
125 600 461 119 103 93
124 600 462 128 109 97
124 600 463 135 114 103
125 600 462 124 106 96
125 600 463 128 109 100
126 600 460 116 101 92
126 600 461 122 105 95
126 600 462 123 106 96
126 600 463 124 106 97
127 600 462 144 119 111
127 600 463 134 113 104
124 604 457 190 147 139
124 605 456 194 149 141
124 605 457 193 146 139
125 605 456 200 151 142
125 605 457 196 145 139
124 604 458 188 142 136
124 604 459 187 141 134
124 605 458 190 143 137
125 605 458 193 143 137
125 605 459 195 143 138
126 605 456 205 154 145
126 605 457 201 148 140
127 605 456 210 158 148
127 605 457 207 153 144
126 605 458 198 144 137
126 605 459 200 145 139
127 605 458 205 150 142
127 605 459 206 151 144
124 604 460 188 141 135
124 604 461 193 145 138
125 604 461 201 149 143
125 605 460 201 148 142
125 605 461 204 150 145
124 604 462 198 150 145
124 604 463 204 158 154
125 604 462 207 154 150
125 604 463 211 161 159
125 605 462 207 152 148
125 605 463 209 157 154
126 605 460 207 151 146
126 605 461 211 154 149
127 605 460 211 155 148
127 605 461 216 159 152
126 605 462 213 156 152
126 605 463 215 161 158
127 605 462 217 159 153
127 605 463 218 161 158
123 600 464 155 127 119
123 600 465 164 135 129
123 601 464 168 136 129
123 601 465 177 144 140
123 600 466 170 140 135
123 600 467 173 143 139
123 601 466 177 145 142
123 601 467 180 147 144
123 602 464 176 141 136
123 602 465 183 148 145
123 603 464 185 147 143
123 603 465 191 155 153
123 602 466 187 153 150
123 602 467 189 155 153
123 603 466 197 161 161
123 603 467 200 164 164
123 600 468 176 145 141
123 601 468 183 149 147
123 601 469 186 152 150
123 602 468 192 157 156
123 602 469 195 159 158
123 603 468 199 163 163
124 600 464 149 123 115
124 600 465 157 129 123
125 600 464 135 114 105
125 600 465 149 124 116
124 600 466 162 134 128
124 600 467 166 137 132
125 600 466 153 127 121
125 600 467 155 129 123
126 600 464 132 111 103
126 600 465 145 121 114
127 600 464 142 118 110
127 600 465 147 122 114
126 600 466 147 123 115
126 600 467 149 124 117
127 600 466 150 125 117
127 600 467 150 125 117
124 600 468 173 142 138
124 600 469 176 144 141
124 601 469 184 151 149
125 600 468 162 134 128
125 600 469 173 141 137
125 601 469 181 148 145
124 601 470 191 156 154
125 601 470 189 154 152
124 602 469 200 163 163
124 603 468 207 170 170
124 603 469 204 166 167
125 603 469 210 171 172
124 602 470 198 162 161
124 603 470 203 165 166
125 602 470 200 162 162
125 603 470 206 167 167
126 600 468 153 126 120
126 600 469 163 133 128
126 601 469 174 141 137
127 600 468 155 127 120
127 600 469 164 133 128
127 601 469 175 141 137
126 601 470 187 151 150
127 601 470 188 151 150
127 603 469 219 175 176
126 602 470 200 162 162
126 603 470 209 168 169
127 602 470 200 161 160
127 603 470 210 168 168
124 604 464 203 158 157
124 604 465 212 173 175
125 604 464 216 170 170
125 604 465 224 186 189
124 604 466 216 178 181
124 604 467 214 176 179
125 604 466 228 191 195
125 604 467 228 188 192
126 604 464 227 181 180
126 604 465 234 195 195
126 605 464 223 174 172
127 604 464 223 171 170
127 604 465 232 184 185
127 605 464 220 164 163
126 604 466 236 197 199
126 604 467 235 194 197
127 604 466 237 191 191
127 604 467 235 189 190
124 604 468 213 174 176
125 604 468 223 182 185
125 604 469 216 175 176
126 604 468 233 189 191
126 604 469 221 178 179
127 604 468 233 185 186
127 604 469 223 178 179
78 643 296 93 98 107
79 642 296 91 96 104
79 642 297 92 96 104
79 643 296 93 98 106
79 643 297 92 97 105
79 643 298 90 94 101
77 645 296 94 98 107
77 645 297 95 100 108
76 646 296 96 101 110
76 647 296 98 103 113
76 647 297 100 105 113
77 646 296 95 99 108
77 646 297 98 103 111
77 647 297 101 105 113
77 646 298 99 103 112
77 646 299 98 103 112
77 647 298 100 104 113
77 647 299 99 103 112
78 644 296 93 98 107
78 644 297 93 98 106
78 645 296 94 99 108
78 645 297 95 99 108
79 644 297 92 97 105
78 645 298 96 100 108
78 645 299 96 101 109
79 644 298 91 96 103
79 644 299 90 93 99
79 645 299 92 96 103
78 646 299 97 102 111
77 647 300 96 101 110
78 645 300 95 99 107
79 644 300 89 89 94
79 645 300 92 95 101
79 645 301 87 87 91
78 646 300 95 99 108
78 647 300 95 100 109
78 647 301 92 96 104
79 646 301 87 89 95
78 647 302 91 94 102
79 646 302 83 82 84
79 647 302 88 89 94
79 647 303 83 83 86
75 648 296 102 107 116
75 649 296 101 106 115
75 649 297 96 102 111
75 650 296 98 103 112
75 650 297 96 101 110
75 651 296 97 102 112
75 651 297 98 104 113
75 651 298 101 106 116
75 652 296 101 106 115
75 652 297 99 105 115
75 653 296 103 108 118
75 653 297 101 107 117
75 652 298 103 108 117
75 653 298 104 109 119
75 653 299 106 112 122
75 654 296 106 111 121
75 654 297 104 110 120
75 655 296 109 114 125
75 655 297 107 112 123
75 654 298 108 113 123
75 655 298 109 114 124
76 648 296 101 106 115
76 648 297 100 105 114
76 649 297 97 103 112
76 648 298 96 101 110
76 648 299 95 100 109
76 649 298 96 101 110
76 649 299 98 103 112
77 648 299 96 100 110
76 650 298 99 104 114
76 650 299 101 106 115
76 651 298 102 106 116
76 651 299 104 109 119
76 649 300 100 105 115
76 649 301 100 105 115
77 648 300 96 101 110
77 648 301 97 102 112
77 649 301 99 105 114
77 649 302 97 103 112
77 649 303 99 104 113
76 650 300 103 107 117
76 650 301 102 107 116
76 651 300 105 110 119
76 651 301 105 110 119
77 650 301 102 107 117
76 651 302 105 110 119
76 651 303 103 108 118
77 650 302 102 107 117
77 650 303 100 105 115
77 651 303 102 107 117
78 648 301 95 100 109
78 648 302 94 98 106
78 648 303 90 94 102
78 649 302 95 100 109
78 649 303 94 99 107
79 648 303 87 88 92
79 649 303 88 90 96
76 652 299 107 113 122
76 653 299 107 113 123
76 654 299 108 114 124
76 655 299 110 115 125
76 652 300 108 113 123
76 652 301 108 113 123
76 653 300 107 113 123
76 653 301 107 112 123
76 652 302 106 112 122
76 652 303 104 110 120
76 653 302 105 110 121
76 653 303 106 111 121
77 652 303 104 109 119
76 654 300 106 111 122
76 654 301 105 110 121
76 655 300 107 112 122
76 655 301 104 110 121
76 654 302 104 110 120
76 654 303 106 111 120
76 655 302 105 111 122
76 655 303 105 110 120
77 655 303 105 111 121
77 650 304 100 105 115
77 651 304 101 106 116
78 649 304 91 94 101
79 649 304 86 85 87
79 649 305 85 81 82
78 650 304 95 99 107
78 650 305 89 91 97
78 651 304 98 103 112
78 651 305 95 98 106
79 650 305 85 84 86
78 651 306 91 93 99
79 650 306 85 82 82
79 651 306 89 88 90
77 652 304 102 108 118
77 652 305 104 109 119
77 653 304 105 110 120
77 653 305 107 112 122
77 653 306 108 113 123
76 654 304 106 111 120
77 654 304 106 111 120
77 654 305 107 112 122
77 655 304 106 111 121
77 655 305 107 113 123
77 654 306 110 115 125
77 655 306 110 116 127
78 652 305 101 106 115
78 652 306 97 101 109
78 653 306 103 107 116
78 653 307 101 106 115
79 652 306 94 95 101
79 652 307 93 93 98
79 653 307 95 99 106
78 654 306 111 116 126
78 654 307 105 111 120
78 655 306 113 118 129
78 655 307 113 118 129
79 652 308 93 94 99
79 653 308 94 96 102
78 655 308 108 113 124
79 654 308 101 104 113
79 654 309 98 100 107
79 655 308 105 110 120
79 655 309 103 107 115
75 656 296 109 114 124
75 656 297 109 114 124
75 657 296 108 113 122
75 657 297 112 116 126
75 656 298 109 114 124
75 657 298 112 116 126
75 658 296 106 111 121
75 658 297 109 114 124
75 659 296 104 110 120
75 659 297 104 109 120
75 658 298 112 117 127
75 660 296 103 109 121
75 660 297 101 107 118
75 661 296 104 110 121
75 661 297 102 108 120
75 662 296 107 113 124
75 662 297 107 113 124
75 663 296 111 116 127
76 656 298 111 115 126
76 656 299 110 115 125
76 657 298 112 117 127
76 657 299 110 115 125
76 659 297 102 108 118
76 658 298 111 116 126
76 658 299 111 116 126
76 659 298 109 114 124
76 659 299 114 118 129
76 656 300 108 112 122
76 656 301 105 111 121
76 657 300 107 112 122
76 657 301 107 112 123
76 656 302 107 112 122
76 657 302 109 114 124
77 656 303 107 112 122
77 657 302 108 113 123
77 657 303 107 112 122
76 658 300 110 115 125
76 658 301 110 115 126
76 659 300 116 120 131
76 659 301 113 118 129
76 658 302 110 115 125
77 658 302 108 113 122
77 658 303 106 111 121
77 659 302 108 114 125
77 659 303 106 112 123
76 660 297 101 107 118
76 661 297 103 109 120
76 660 298 107 113 123
76 660 299 114 119 130
76 661 298 105 111 122
76 661 299 108 113 124
76 662 297 108 113 124
76 663 297 111 117 127
76 662 298 103 109 120
76 662 299 101 107 118
76 663 298 105 110 121
76 663 299 96 103 113
76 660 300 118 122 133
76 660 301 118 123 134
76 661 300 112 117 128
77 660 301 116 122 133
77 661 301 116 121 132
77 660 302 110 117 128
77 660 303 109 115 127
77 661 302 118 123 134
77 661 303 115 120 132
76 662 300 104 109 120
76 663 300 100 106 116
77 662 301 112 117 127
77 663 300 101 107 117
77 663 301 106 111 121
77 662 302 121 125 137
77 662 303 123 128 139
77 663 302 117 122 133
77 663 303 127 131 142
75 664 296 108 113 123
76 664 296 109 114 124
76 664 297 110 115 125
76 665 296 104 109 119
76 665 297 108 114 125
76 664 298 108 114 124
76 664 299 103 109 119
76 665 298 113 119 130
76 665 299 109 115 126
76 666 296 105 110 121
76 666 297 111 116 127
76 667 296 106 111 121
76 667 297 110 115 125
76 666 298 117 122 133
76 666 299 117 123 134
76 667 298 115 120 131
76 667 299 117 122 133
77 666 299 113 118 129
77 667 299 118 124 135
77 664 300 101 107 118
77 664 301 102 107 118
77 665 300 103 109 120
77 665 301 102 107 118
77 664 302 109 114 125
77 664 303 120 125 136
77 665 302 106 111 122
77 665 303 116 121 132
77 666 300 108 114 124
77 666 301 104 109 119
77 667 300 117 122 133
77 667 301 110 115 125
77 666 302 104 109 119
77 667 302 104 109 120
78 665 303 117 122 133
78 666 302 103 108 118
78 666 303 108 113 124
78 667 302 103 109 120
78 667 303 105 110 121
76 668 296 106 110 120
76 668 297 107 111 121
76 668 298 110 115 125
77 668 299 118 122 133
77 668 300 119 124 135
77 668 301 115 120 131
78 668 302 107 113 124
78 668 303 106 112 123
79 668 303 107 113 125
77 656 304 110 114 124
77 656 305 111 116 127
77 657 304 108 112 122
77 657 305 108 113 124
77 656 306 115 120 132
77 657 306 112 118 129
77 658 304 106 111 121
77 658 305 108 113 124
77 659 304 108 114 125
77 659 305 110 116 128
77 658 306 111 117 128
77 659 306 113 119 130
78 656 306 117 122 134
78 656 307 118 123 135
78 657 306 116 121 132
78 657 307 120 126 137
78 658 306 114 119 131
78 658 307 120 126 137
78 659 306 114 120 131
78 659 307 120 126 138
78 656 308 116 122 134
78 657 308 121 127 139
78 657 309 117 123 135
79 656 308 107 112 123
79 656 309 107 113 123
79 657 309 112 118 130
79 656 310 105 111 121
79 657 310 109 115 127
78 658 308 125 131 143
78 658 309 123 129 142
78 659 308 126 132 145
78 659 309 129 135 148
79 658 309 120 126 139
79 659 309 128 134 147
79 658 310 116 122 134
79 658 311 118 124 135
79 659 310 124 130 142
79 659 311 121 128 140
77 660 304 109 115 126
77 660 305 109 115 127
77 661 304 116 121 133
77 661 305 116 121 133
77 662 304 124 129 140
77 662 305 122 127 139
77 663 304 127 132 143
78 661 305 118 124 136
78 660 306 110 116 128
78 660 307 115 122 135
78 661 306 114 120 132
78 661 307 116 123 136
78 662 305 124 129 141
78 663 304 127 132 144
78 663 305 127 133 144
78 662 306 123 129 141
78 662 307 122 128 141
78 663 306 127 133 146
78 663 307 124 131 144
79 663 307 123 130 143
78 660 308 123 129 142
78 660 309 127 133 145
78 661 308 122 128 140
78 661 309 125 131 143
79 660 309 128 134 146
79 661 309 126 132 145
79 660 310 130 136 148
79 660 311 130 136 149
79 661 310 132 138 151
79 661 311 133 140 153
78 662 308 123 129 142
79 662 308 125 131 144
79 662 309 127 133 145
79 663 308 122 128 141
79 663 309 123 129 141
79 662 310 131 137 149
79 663 310 128 133 145
77 664 304 125 129 141
78 664 304 126 131 142
78 664 305 130 135 146
78 665 304 124 129 140
78 665 305 128 133 145
78 664 306 129 135 147
78 665 306 130 135 148
79 664 307 124 131 144
79 665 306 130 136 149
79 665 307 130 137 149
78 666 304 113 119 130
78 666 305 122 127 139
78 667 304 108 114 125
79 666 305 120 126 138
79 667 304 110 116 127
79 667 305 121 126 137
79 666 306 127 133 146
79 666 307 133 139 152
79 667 306 125 131 143
79 664 308 119 126 139
79 664 309 119 126 138
79 665 308 126 133 146
79 668 304 109 115 126
79 668 305 117 122 133
80 640 296 89 91 96
80 641 296 91 94 101
80 641 297 90 91 95
81 640 296 87 89 93
81 640 297 84 84 86
80 641 298 87 86 88
81 640 298 85 80 77
81 640 299 93 83 75
81 641 298 87 83 82
81 641 299 90 81 74
80 642 296 91 96 103
80 642 297 91 94 102
80 642 298 87 88 92
80 642 299 88 83 82
80 643 298 88 91 96
80 643 299 87 86 88
81 642 299 88 82 77
82 640 298 89 79 73
82 640 299 93 82 74
81 641 300 96 84 73
81 641 301 100 85 73
80 643 300 88 81 77
81 642 300 93 82 74
81 642 301 98 85 73
81 643 300 91 81 74
81 643 301 97 84 73
81 643 302 102 86 73
82 640 300 98 85 73
82 640 301 103 88 74
82 641 300 99 86 75
82 641 301 103 87 73
82 640 302 106 90 75
82 640 303 107 90 76
82 641 302 106 89 73
82 641 303 107 90 75
83 640 303 107 91 76
82 642 301 102 87 73
82 642 302 104 87 72
82 642 303 106 89 73
82 643 302 103 87 72
82 643 303 105 88 73
80 644 299 87 87 91
80 644 300 87 84 86
80 644 301 87 80 77
80 645 301 83 78 77
81 644 301 93 81 73
80 645 302 87 77 71
81 644 302 97 83 73
81 644 303 99 85 73
81 645 302 92 80 71
81 645 303 96 83 73
80 646 302 82 77 75
80 646 303 87 78 72
80 647 303 84 78 75
81 646 303 93 82 73
82 644 303 102 86 73
80 648 303 84 80 80
82 641 304 108 91 76
83 640 304 109 93 78
83 640 305 111 94 79
83 641 304 110 93 78
83 641 305 110 93 78
83 640 306 112 95 79
83 640 307 111 93 77
83 641 306 110 92 76
83 641 307 109 91 75
82 642 304 106 89 73
82 642 305 106 89 72
82 643 304 106 89 74
82 643 305 105 88 72
83 642 305 107 89 73
83 643 305 105 88 71
83 642 306 106 89 72
83 642 307 106 88 72
83 643 306 105 88 72
83 643 307 105 88 73
83 640 308 109 92 75
83 641 308 108 91 74
83 642 308 105 88 73
83 643 308 106 89 74
83 643 309 108 91 76
81 645 304 100 86 73
80 647 304 92 82 75
81 646 304 97 85 74
81 647 304 96 85 76
81 647 305 100 87 76
82 644 304 102 86 72
82 644 305 103 86 71
82 645 304 101 86 73
82 645 305 103 87 72
82 644 306 105 87 71
82 645 306 105 88 71
83 644 306 104 87 71
83 644 307 105 88 72
83 645 307 106 89 72
82 646 304 100 86 74
82 646 305 102 87 74
82 647 305 102 88 76
82 646 306 105 88 73
82 646 307 108 90 74
82 647 306 104 89 74
82 647 307 108 91 75
83 646 307 109 91 75
83 647 307 110 92 76
83 644 308 106 89 74
83 644 309 110 92 76
83 645 308 108 91 74
83 645 309 111 93 75
83 645 310 114 95 76
83 646 308 111 93 76
83 646 309 114 94 76
83 647 308 112 93 76
83 647 309 116 95 76
83 646 310 116 95 76
83 647 310 119 97 76
84 640 307 113 94 78
84 640 308 111 93 77
84 640 309 112 93 76
84 641 308 108 90 74
84 641 309 108 90 72
84 640 310 112 93 75
84 640 311 112 93 75
84 641 310 108 90 72
84 641 311 109 91 73
85 640 311 116 96 79
84 642 309 106 89 72
84 643 309 107 90 74
84 642 310 108 90 73
84 642 311 110 92 75
84 643 310 109 91 75
84 643 311 111 93 76
84 644 310 112 93 76
84 644 311 114 94 76
84 645 310 114 95 76
84 645 311 117 96 77
84 646 310 118 97 77
84 646 311 119 98 78
84 647 311 121 98 78
84 641 312 111 92 75
85 640 312 113 94 77
85 640 313 113 94 77
85 641 312 111 92 75
85 641 313 113 94 76
85 640 314 113 94 76
85 641 314 115 95 77
85 641 315 116 96 77
84 642 312 111 93 76
84 643 312 113 95 77
85 642 312 112 94 77
85 642 313 114 95 77
85 643 313 116 96 77
85 642 314 117 97 78
85 642 315 119 98 78
85 643 314 118 97 78
85 643 315 121 99 80
86 640 315 114 95 77
86 641 315 117 96 78
86 643 315 122 100 81
86 640 316 116 96 77
86 640 317 118 97 77
86 641 316 117 96 77
86 641 317 120 98 79
86 641 318 122 100 81
87 640 318 119 98 78
87 640 319 121 98 78
87 641 318 122 100 81
87 641 319 125 101 81
86 642 316 121 99 80
86 642 317 122 99 80
86 643 316 124 100 81
86 643 317 125 101 82
86 642 318 124 100 80
86 643 318 127 101 82
87 642 318 124 100 81
87 642 319 128 103 83
87 643 319 131 104 85
84 644 312 116 96 77
84 644 313 118 96 77
84 645 312 119 98 77
84 645 313 121 98 78
85 644 313 118 96 77
85 644 314 120 98 78
85 644 315 122 99 79
85 645 314 123 100 79
85 645 315 127 102 82
84 646 312 121 99 79
84 646 313 124 101 82
84 647 312 123 100 80
84 647 313 127 102 83
84 647 314 129 104 85
85 646 314 127 103 83
85 646 315 130 105 85
85 647 314 129 105 85
85 647 315 131 105 86
85 644 316 124 100 80
85 645 316 129 103 84
85 646 316 131 105 87
85 647 316 133 106 89
86 644 316 126 101 82
86 644 317 129 104 85
86 645 316 130 104 85
86 645 317 131 105 86
86 644 318 131 105 85
86 644 319 133 106 87
86 645 318 134 107 88
86 645 319 136 109 90
87 644 319 134 106 87
87 645 319 137 109 91
86 646 316 133 106 88
86 646 317 134 106 88
86 647 317 136 108 91
86 646 318 136 108 90
86 646 319 138 110 92
86 647 318 138 108 91
86 647 319 140 110 93
87 646 319 139 110 92
87 647 319 142 111 94
80 648 304 88 81 77
80 648 305 88 75 64
80 649 304 85 80 78
80 649 305 89 80 74
81 648 305 99 86 76
81 649 305 98 85 76
80 649 306 93 83 75
81 648 306 102 88 76
81 649 306 100 87 76
80 650 306 89 81 75
80 651 306 88 83 81
80 651 307 87 80 76
81 650 307 101 87 76
81 651 307 95 83 75
82 648 306 104 89 76
82 648 307 109 92 76
82 649 306 105 89 75
82 649 307 109 92 78
82 650 307 108 92 78
81 651 308 102 88 78
82 648 308 112 93 77
82 649 308 113 94 77
82 649 309 116 95 77
83 648 308 114 94 76
83 648 309 117 96 77
83 649 309 117 96 77
83 648 310 120 97 76
83 648 311 122 97 77
83 649 310 120 97 77
83 649 311 123 99 79
82 650 308 111 94 78
82 650 309 114 96 79
82 651 308 108 92 80
82 651 309 111 93 79
83 650 309 117 96 77
82 651 310 114 94 79
83 650 310 119 97 77
83 650 311 123 98 79
83 651 310 117 95 77
83 651 311 118 95 77
80 652 307 91 88 89
80 652 308 90 84 82
80 653 308 89 87 88
80 653 309 90 88 91
81 652 308 92 81 73
81 652 309 99 85 75
81 653 309 90 82 79
81 652 310 98 84 75
81 653 310 92 80 75
80 654 309 93 94 99
80 654 310 92 93 98
80 655 310 98 101 109
81 654 310 88 84 85
81 654 311 89 83 82
81 655 310 92 92 97
81 655 311 92 93 98
82 652 309 107 90 78
82 652 310 107 89 78
82 652 311 109 91 78
82 653 310 99 84 76
82 653 311 102 86 76
83 652 311 114 94 79
82 654 311 91 82 78
84 648 311 123 99 79
83 650 312 125 99 81
83 651 312 123 99 81
81 655 312 90 91 96
83 652 312 120 97 81
83 653 312 112 92 79
83 653 313 119 97 84
82 654 312 96 82 74
82 655 312 93 85 84
83 654 312 102 85 75
83 654 313 109 89 78
83 655 313 96 82 76
83 655 314 100 84 77
84 648 312 126 102 82
84 648 313 131 104 86
84 649 312 126 101 82
84 649 313 131 105 86
84 648 314 133 106 87
84 649 314 134 107 89
85 648 314 132 105 87
85 648 315 133 106 87
85 649 314 134 107 89
85 649 315 137 109 92
84 650 312 128 101 82
84 650 313 131 104 85
84 651 312 128 102 84
84 651 313 131 104 86
84 650 314 135 108 90
84 651 314 134 106 88
85 650 315 138 110 94
85 651 315 136 108 90
85 648 316 136 107 90
85 648 317 139 109 94
85 649 316 139 109 93
85 649 317 139 109 93
85 650 316 140 110 94
85 650 317 141 111 95
85 651 316 139 108 92
85 651 317 141 110 95
86 648 317 139 110 94
86 649 317 141 111 95
86 648 318 141 110 95
86 648 319 143 111 96
86 649 318 143 111 96
86 649 319 145 113 97
87 648 319 143 112 96
86 650 317 143 113 98
86 651 317 142 112 96
86 650 318 146 115 99
86 650 319 148 116 100
86 651 318 147 117 101
86 651 319 151 119 103
87 651 319 151 118 102
84 652 313 127 101 85
84 653 313 122 97 83
84 652 314 130 102 86
84 653 314 124 97 83
84 653 315 126 98 83
85 652 315 133 104 88
85 653 315 128 100 84
84 654 313 116 93 80
84 654 314 118 94 82
84 654 315 121 95 82
84 655 314 106 87 80
84 655 315 112 90 81
85 654 315 123 96 82
85 655 315 117 93 83
85 652 316 137 107 91
85 652 317 141 111 95
85 653 316 133 102 87
85 654 316 126 96 80
85 655 316 121 97 83
86 652 317 141 111 96
86 653 317 138 106 91
86 652 318 147 116 101
86 653 318 142 110 95
87 652 319 153 120 104
87 653 318 147 114 99
87 653 319 151 118 102
86 654 317 133 101 85
86 655 316 126 97 83
86 655 317 130 100 86
86 654 318 138 106 90
87 654 318 142 110 94
87 654 319 147 114 98
87 655 318 136 104 90
88 653 319 155 121 105
88 654 319 151 117 102
88 655 319 143 110 95
89 655 319 148 115 100
80 656 310 104 109 118
80 656 311 98 103 113
80 657 311 108 114 124
81 656 311 95 100 109
80 658 311 114 119 130
80 659 311 121 127 139
80 660 311 126 133 146
80 661 311 132 140 153
80 662 310 131 136 149
80 662 311 133 139 153
80 663 310 129 135 147
80 663 311 137 143 156
81 656 312 93 97 105
81 657 312 99 104 114
81 657 313 95 100 109
80 658 312 112 118 128
80 659 312 121 127 138
81 658 312 108 113 123
81 658 313 100 106 115
81 659 312 119 125 137
81 659 313 115 122 133
82 656 312 93 93 97
82 656 313 95 93 97
82 657 313 98 99 106
83 656 313 93 87 86
83 656 314 94 86 86
83 657 314 98 96 100
82 658 313 98 102 112
82 659 313 107 113 125
82 658 314 96 100 108
82 659 314 101 107 118
83 658 314 97 99 106
83 659 314 93 98 107
83 659 315 92 98 108
80 660 312 125 132 146
80 661 312 131 138 152
81 660 312 122 130 142
81 660 313 123 131 144
81 661 312 129 137 150
81 661 313 130 137 151
80 662 312 133 140 154
81 662 312 134 141 155
81 662 313 133 140 154
81 663 312 142 148 161
82 660 314 111 118 131
82 661 314 128 135 148
83 660 314 99 106 118
83 660 315 93 99 111
83 661 314 115 123 136
83 661 315 105 113 127
82 662 313 133 139 152
82 663 313 136 143 157
82 662 314 130 137 151
83 662 314 126 133 148
83 662 315 119 127 142
83 663 314 132 139 154
83 663 315 126 134 148
84 656 314 96 87 86
84 656 315 100 85 81
84 657 314 98 94 97
84 657 315 100 91 91
85 657 315 103 91 89
84 658 315 101 99 103
84 659 315 99 100 107
85 656 316 111 89 79
85 657 316 104 88 83
85 658 316 105 96 97
85 659 316 108 106 110
86 656 316 118 92 81
86 656 317 124 95 84
86 657 316 108 86 80
86 657 317 114 89 81
87 656 318 132 101 88
87 657 318 122 93 83
86 658 316 104 92 93
86 658 317 105 89 88
86 659 316 109 106 110
86 659 317 108 102 105
87 659 317 107 101 103
87 658 318 109 90 83
87 659 318 106 95 95
84 660 315 91 95 106
84 661 315 92 99 111
84 662 315 103 111 125
84 663 315 120 128 143
85 663 315 109 119 133
84 660 316 94 97 106
84 661 316 89 93 104
85 660 316 101 103 111
85 661 316 92 95 106
85 662 316 90 96 109
85 663 316 101 110 124
86 660 316 111 112 119
86 660 317 113 113 119
86 661 316 98 102 111
86 661 317 109 111 119
87 660 317 112 111 116
87 661 317 113 115 123
87 660 318 110 108 112
87 661 318 113 115 122
86 662 316 87 93 105
86 662 317 92 96 108
86 663 316 90 98 111
86 663 317 88 93 106
87 662 317 100 103 113
87 663 317 91 97 108
87 662 318 108 111 120
80 666 307 135 141 154
80 667 306 128 135 147
80 667 307 134 141 154
80 664 309 121 127 140
80 665 308 128 134 147
80 665 309 124 131 143
80 664 310 128 134 147
80 664 311 138 143 156
80 665 310 126 132 144
81 664 311 139 144 157
81 665 310 129 135 148
81 665 311 136 142 155
80 666 308 134 141 154
80 666 309 130 136 149
80 667 308 135 142 155
81 666 309 131 138 151
81 667 308 136 143 157
81 667 309 135 141 155
81 666 310 130 137 151
81 666 311 134 140 154
81 667 310 132 139 152
82 667 309 129 136 151
82 666 310 131 137 151
82 666 311 134 140 154
82 667 310 128 135 149
82 667 311 130 137 151
83 667 311 128 135 149
80 668 305 117 122 133
80 668 306 127 133 145
80 668 307 136 142 156
81 668 307 140 146 159
81 668 308 140 147 160
82 668 308 138 145 159
82 668 309 133 140 155
82 668 310 126 134 149
83 668 310 125 133 147
83 668 311 127 134 148
84 668 311 127 135 149
81 664 312 144 150 163
81 665 312 141 147 160
82 664 312 144 150 163
82 664 313 141 148 162
82 665 312 142 149 162
82 665 313 144 151 165
83 664 313 140 147 161
83 665 313 144 151 166
83 664 314 136 144 158
83 665 314 142 149 164
82 666 312 138 145 158
83 666 312 139 146 160
83 666 313 142 149 164
83 667 312 134 141 155
83 667 313 141 147 162
84 664 314 133 141 156
84 664 315 129 138 153
84 665 314 138 146 161
84 665 315 134 142 158
85 664 315 126 135 150
85 665 315 134 143 159
84 666 313 145 152 167
84 667 312 137 143 157
84 667 313 145 152 166
85 667 313 148 155 170
84 666 314 143 151 166
85 666 314 143 151 167
85 666 315 138 147 163
85 667 314 146 154 169
86 665 315 132 141 156
86 666 315 138 147 163
86 667 314 145 153 169
86 667 315 141 150 166
87 667 315 139 148 164
85 664 316 116 126 141
86 664 316 106 115 129
86 665 316 124 134 149
87 664 317 91 100 112
87 665 316 115 125 139
87 665 317 107 116 131
86 666 316 135 144 160
87 666 316 130 140 156
87 667 316 137 147 163
84 668 312 133 139 153
84 668 313 140 147 161
85 668 312 136 143 156
85 668 313 142 149 163
85 668 314 148 155 170
86 668 314 147 155 170
87 668 314 147 155 170
87 668 315 143 152 168
88 656 318 134 102 89
88 656 319 138 105 91
88 657 318 128 98 87
88 657 319 132 102 89
89 656 319 142 109 96
89 657 319 137 106 93
88 658 318 114 91 83
88 658 319 118 93 83
88 659 318 108 95 91
89 658 319 124 97 86
89 659 319 111 93 86
90 658 319 128 100 89
90 659 319 115 93 83
88 660 318 109 105 107
88 661 318 115 115 123
89 660 319 109 100 99
89 661 319 112 111 116
88 662 318 112 115 124
88 663 318 101 105 116
89 662 318 115 118 128
89 662 319 115 119 128
89 663 318 109 113 123
90 660 319 110 95 92
90 661 319 108 103 107
90 662 319 118 121 131
90 663 319 117 122 133
91 662 319 128 132 142
91 663 319 129 134 145
88 664 317 91 99 111
88 665 317 97 106 120
89 665 317 96 103 117
88 664 318 95 100 113
89 664 318 101 105 116
89 665 318 96 101 113
88 666 316 129 138 154
88 666 317 119 128 143
88 667 316 136 146 162
89 666 317 111 120 135
89 667 316 136 145 161
89 667 317 131 140 156
89 666 318 97 105 118
90 664 318 104 108 118
90 664 319 109 114 124
90 665 318 99 104 115
90 665 319 104 109 120
91 664 319 122 127 138
91 665 319 109 114 125
90 666 317 107 117 131
90 667 317 122 132 148
91 667 317 118 129 145
90 666 318 98 105 118
90 667 318 107 116 131
91 666 318 99 106 118
91 666 319 105 111 122
91 667 318 105 115 129
88 668 315 141 150 167
88 668 316 139 149 166
89 668 316 142 151 168
90 668 316 143 153 170
90 668 317 138 148 165
91 668 317 133 143 160
92 664 319 131 137 148
92 665 319 118 123 135
93 665 319 123 128 140
92 666 318 99 106 119
92 666 319 106 112 123
92 667 318 103 112 126
93 666 319 112 117 129
93 667 318 106 114 128
93 667 319 107 114 126
94 666 319 118 124 136
94 667 319 112 118 130
95 667 319 115 121 134
92 668 317 133 144 161
92 668 318 123 133 149
93 668 318 119 128 142
94 668 318 115 123 137
94 668 319 111 118 132
95 668 319 112 119 133
96 668 319 118 125 139
97 668 319 123 132 147
98 668 319 130 139 156
107 668 319 145 150 166
111 667 319 153 157 171
108 668 319 145 150 167
109 668 319 144 149 165
110 668 319 143 148 163
111 668 319 148 153 168
123 640 296 97 83 71
123 640 297 100 85 72
123 641 296 100 85 72
123 641 297 101 86 72
123 640 298 103 86 72
123 640 299 103 87 72
123 641 298 102 86 72
124 641 297 102 86 72
124 640 298 104 87 72
124 640 299 104 87 73
124 641 298 104 87 72
124 641 299 106 88 73
124 642 296 101 85 72
124 642 297 102 86 72
124 643 296 101 85 71
124 643 297 103 87 72
124 642 298 104 87 71
124 642 299 107 88 72
124 643 298 105 88 72
124 643 299 109 90 73
124 640 300 106 89 74
124 640 301 109 91 74
124 641 300 108 89 73
124 641 301 110 91 74
125 641 301 111 92 74
124 640 302 111 93 76
125 640 302 113 94 76
125 640 303 116 96 77
125 641 302 114 94 75
125 641 303 116 95 76
124 642 300 108 89 73
124 643 300 110 90 73
125 642 300 109 90 73
125 642 301 111 92 75
125 643 300 111 91 74
125 643 301 114 93 75
125 642 302 115 95 76
125 643 302 116 95 76
126 641 303 116 95 75
126 642 303 117 96 77
126 643 302 116 94 76
126 643 303 117 96 78
124 644 296 101 84 71
124 644 297 103 86 72
125 644 296 100 85 72
125 644 297 103 86 72
125 645 296 98 84 72
125 645 297 103 86 72
124 644 298 107 89 73
124 644 299 110 90 73
125 644 299 112 91 75
125 645 298 108 89 73
125 645 299 111 91 72
125 646 296 94 81 71
125 646 297 99 84 70
125 647 296 89 78 70
125 647 297 93 80 70
125 646 298 106 88 72
125 646 299 111 90 72
125 647 298 100 85 71
125 647 299 108 88 73
126 647 296 88 80 76
126 647 297 89 79 73
125 644 300 113 93 76
125 644 301 116 94 78
125 645 300 114 92 73
125 645 301 116 93 76
125 644 302 118 96 79
125 644 303 119 96 80
125 645 302 119 95 80
125 645 303 119 97 82
125 646 300 115 92 75
125 646 301 117 93 76
125 647 300 114 91 77
125 647 301 116 93 75
125 646 302 118 94 78
125 646 303 118 95 80
125 647 302 117 94 75
125 647 303 119 96 80
126 644 303 119 96 78
125 648 298 95 81 71
125 648 299 101 84 73
125 649 299 94 80 71
126 648 296 92 88 89
126 648 297 91 84 81
126 649 296 94 95 100
126 649 297 93 90 92
126 648 298 93 84 79
126 649 298 92 85 82
126 649 299 92 82 76
126 650 296 93 96 104
126 650 297 94 95 100
127 650 296 94 98 107
127 650 297 92 96 104
127 651 296 94 98 107
127 651 297 94 97 105
126 650 298 96 94 97
126 650 299 94 87 85
126 651 298 96 97 103
126 651 299 99 98 102
127 651 298 96 97 104
127 651 299 102 102 108
125 648 300 109 88 76
125 648 301 114 92 75
